ply
format ascii 1.0
element vertex 699
property double x
property double y
property double z
property uchar red
property uchar green
property uchar blue
end_header
0.4070662185583872 1.8745062824015624 2.8095315666193703 166 114 75
0.4455942721194503 1.9923320149749937 2.7497689234440315 185 130 89
0.9979311409474632 1.6938818150856478 2.3262036152665542 147 108 65
1.0474367184083326 1.5792660726011269 2.1712669754223977 110 70 34
1.1375482624768967 1.4511403498968385 1.9904768925941050 113 79 41
-0.1363309932806543 0.1497588001645299 0.8784485240521647 235 220 191
0.9217356020921910 1.7362668114307227 2.2530182152007665 136 97 56
1.0505022331248626 1.5916158356325638 2.1205199303604889 115 72 38
0.4279210669586254 1.9714420539133857 2.7484647301872482 83 43 8
1.0466209164806108 1.4955870085843617 1.9915201744770374 212 174 127
1.0727138115351826 1.4946033533709775 1.9931336426145103 206 168 121
1.0382540786978223 1.7070109969176208 2.4737868973500592 145 83 36
1.1070485245341768 1.5126213463692795 2.2275018415240031 126 92 47
0.9102717189427418 1.9230724228494029 2.6381001406776807 191 138 94
0.9132482647000331 1.9698817362492478 2.6264876330032463 184 133 88
1.0890535231570486 1.5103562387162626 2.1853058621735131 214 176 127
1.0081115253517163 1.6594665452360013 2.2832818566691708 213 173 121
1.0778452442514324 1.5081842255869897 2.0829291507674816 214 177 125
1.0331295503377591 1.6055391103423415 2.1699399389407175 186 149 105
-0.1446024848306896 0.1114187931019720 0.9162746833064919 76 73 100
0.0824866651080442 0.0168445441009845 1.1669792928845362 88 58 50
-0.0311158295792392 0.0988656327009980 1.0042336903723577 211 197 196
0.3762335703329457 -0.3021829877326936 1.1579363849692188 88 87 95
0.4295978099621085 -0.2990353370778233 1.1582359737984345 121 104 96
0.3776670087924414 -0.2905163420085977 1.1425009244886184 89 83 93
0.4408579142774799 -0.2799143353861847 1.1408798662783859 58 41 33
-0.1448456466534570 0.1482523393914456 0.8872396234800508 93 79 68
1.2766201549031329 1.3520632970056270 1.8232552503396693 86 53 22
1.2602543721157577 1.3498954156505421 1.8109126399273374 101 67 29
-0.1927464750255362 -0.1324118924759508 0.9423500742838035 23 18 25
-0.4098429060354729 0.0432309363749574 0.9307146681146174 157 124 91
-0.4148418339575231 0.0430271373835952 0.9410282066961309 79 49 21
-0.3741336736730603 0.0319984549291197 0.8753324845758724 53 36 20
0.5482354027406979 1.7968944720033542 2.8275064784249668 206 161 130
0.4294804481601477 2.0049011852215499 2.7676380480019724 177 117 67
0.4615675424522815 -0.3139081849773319 1.1771622972497935 114 87 76
-0.1662776812180541 0.1120676682580107 0.8767045089921023 184 178 182
1.2674046125060834 1.3498894709184113 1.8177316998107631 159 127 89
0.8799325746331922 2.0404960727782897 2.6225491332771269 143 105 82
0.4436604095167886 -0.1633450130476995 1.0876816692516955 114 127 169
-0.4262052420108850 -0.0106785240209769 0.9716050932414645 102 82 55
0.4514094331505065 -0.2415009898883144 1.1126941036732261 177 179 192
-0.4345940166657221 0.0209297741074791 0.9786369386301454 64 46 26
0.3438563045327661 2.2344056192244790 2.6294710321197927 212 158 114
-0.3212523902105881 0.0814574699502182 0.8404103578166949 45 36 29
1.1554308068712127 1.4605453601777583 1.9317250440333491 124 89 51
0.9597383493636202 1.6914661282954118 2.1342160349247155 91 55 23
1.1963435607367059 1.4048353160264135 1.8758420505134203 128 93 53
0.0947953803722653 0.2260919618968576 1.2741978857618839 104 103 135
0.9684523269675989 1.6639556142366554 2.0878347090896030 185 149 97
0.1588811346652907 0.3271834105112129 1.2058395891107989 98 89 118
0.1330226765750558 0.0123704965132102 3.1117034139377373 191 139 102
0.0081864625379032 0.3252415169022305 3.2177415459654872 224 161 107
-0.0027012600220378 0.3321062159492248 3.2313112937227757 162 96 46
0.5301952976748802 1.8052134344687578 2.8225195103798137 135 89 56
0.3877443534161498 -0.1562247881300476 1.0989816091963958 114 128 167
0.2600012518575450 2.1797864661682311 2.7589712861641713 234 184 131
0.8806167491706678 1.9828474711103747 2.6347299581878656 146 114 89
0.4798187485925656 -0.2277696614986900 1.1020653132020242 39 42 57
0.3564059056502293 2.0930413410662942 2.7386100371994679 200 142 92
0.2889703797268786 2.1413430469930179 2.7417670330812918 220 157 104
-0.4680726217750383 0.0246209983435161 1.0505561080909696 121 97 63
0.4724026949772946 -0.1606739302059755 1.0858812557313564 19 25 57
0.5524933862030691 1.8949457177470210 2.7893911352597494 217 180 164
0.2807148265080605 2.2326142515700389 2.6932920410465773 181 110 56
-0.3763537041512878 0.0289309569734698 0.8840901602639737 56 39 31
1.0286304719566759 1.6191477365466775 2.0970437889781159 189 152 108
-0.3824214279887324 0.0516463875268336 0.8835336046673418 46 36 24
1.0337087780269207 1.6070117071424919 2.0757801398002953 144 105 64
1.0093891655362401 1.6457711587748158 2.1093240949625014 165 128 86
0.9394804678493772 1.6854370055361585 2.1250826134361231 193 153 101
-0.1984704589259659 -0.0915897007036749 1.1623118063682987 169 116 85
0.8480368075731373 2.1477141006754135 2.5555297682854619 193 175 165
1.1790252132191674 1.4144579249359581 1.8568369454808884 182 143 102
-0.1987250064517807 -0.1281552527425278 0.9457067758505406 34 27 17
1.2645018810781889 1.3528438902005016 1.8032121555663823 94 60 25
-0.0736824420443292 0.0798761909387724 3.2939791748085199 229 167 116
0.7412988456284806 2.1003121024708564 2.5938603660540629 157 105 58
0.9279055050470778 1.7369578594954249 2.2363563919156735 194 156 107
-0.0200413146772528 -0.0187008976519906 0.9466177994509325 107 51 60
0.8547380125968332 2.0716374975859315 2.5756021834792135 167 130 111
0.3277814383696583 2.2473394577628087 2.6222169434891143 218 156 105
1.1769515177086580 1.4225879245184578 1.8959464720891892 183 146 104
1.0084818790615737 1.6355663960792937 2.0847080030681888 126 89 47
1.1382015921493098 1.4611151913725500 1.9182222407768790 160 122 83
1.1123439774733370 1.4801262365863290 1.9081943850189964 191 154 110
0.3682759384110746 0.3561098170828981 1.0535606510470286 58 74 110
0.3700385590664781 -0.3053248023775442 1.1574224779972071 102 94 107
1.1809264000453537 1.4265445670110950 1.9230400683484579 98 63 23
1.0981792912010464 1.4780235441654335 1.9478998706134922 187 153 105
0.3489859824787409 2.2351243281002509 2.6112680347821122 154 98 51
1.4775406714533419 1.1756458910043259 1.6877311279185889 109 91 79
1.2724019092083929 1.3569117741394285 1.8344141281874959 162 128 90
0.4455208941310459 0.3023024439773574 1.0749781868587576 62 71 130
0.3911964745403206 1.8547064016035824 2.8239726398215033 207 155 115
1.2746527723477392 1.4038256252355383 1.9117710968887651 174 137 92
0.8431732338530312 2.1160113859321128 2.5705293676130738 187 141 107
1.1108330780693139 1.4779211233964444 1.9306881459317358 96 61 29
0.8931998932748078 1.7483099966073465 2.1570954365360508 155 116 75
-0.4276094937758571 -0.0539169390651169 1.1089899121871856 218 198 163
0.4411484063623073 1.8729579146408446 2.7993123503911961 173 125 85
0.5883238335824936 0.5096781807195920 1.0881142990082013 55 67 117
0.3121356999564778 2.1131815470663327 2.7506039761160430 209 149 99
0.1464001555859858 -0.0719170853563537 3.1495995782628419 173 121 81
0.3105270998332215 2.2413104010354594 2.6440770922354226 181 115 65
1.1615070700698853 1.4379064306175111 1.9048218356668918 168 130 91
-0.0215340631373065 0.2907434407568238 3.2859865377641944 159 94 38
0.9715347960502024 1.6649975727823634 2.1222311592887748 89 59 25
-0.1292335793487233 -0.0221000350274212 0.9222086474560077 62 56 60
1.0860954054949512 1.4919480581322404 1.9518339603457573 191 154 109
0.4157967463906670 -0.2224097894534266 1.1127444080521289 150 150 174
-0.2064838389122513 -0.1086418893573119 0.9682728881807057 121 85 59
0.9206707281520161 1.9004185891695276 2.4698787043683699 163 115 75
-0.0154392085684356 -0.0343370799462208 0.9523433765470659 158 97 105
-0.2462649629956600 -0.0836336376031830 1.0267063155669922 143 100 68
0.8963398692351988 1.8254641980628639 2.3258766818909398 216 176 125
1.1328395636244983 1.4704176285711767 1.9643317416831449 96 63 30
-0.0742289530169291 -0.0610526366869743 0.9654826574671388 146 94 70
-0.4932028568449682 0.1130891170089500 1.0075820105927422 235 209 174
0.4553068543132601 -0.3126577073646906 1.1778805497046272 115 95 86
-0.2077397077300795 0.1057526918455593 0.8747342789526310 134 118 128
0.4907377525622181 -0.1859173633630171 1.0905358312457081 174 181 199
0.4011812913883988 -0.2271471229392687 1.1174746768496007 105 108 143
0.4543462250529082 -0.2998336121179017 1.1564994901044976 81 58 50
0.4229379028274052 -0.1979459632399991 1.0992150760402171 126 130 142
0.4119844108781651 -0.2287619371288240 1.1190941488016279 172 172 198
0.3999346724768761 -0.2826237554004368 1.1466510389874378 145 145 153
0.3751400043729834 -0.1554853462861503 1.1013200788195832 124 141 187
0.4069848721700200 -0.1586142159497324 1.0938018205491333 100 104 151
0.4888458242319603 -0.2018182511569651 1.0940815289866404 114 119 141
0.3651743031851042 -0.2642428121503001 1.1279017838688397 80 80 106
0.4882651200137169 -0.2281789464048033 1.1037124129020242 26 29 46
0.3898202584711428 -0.1547246003870284 1.0976379296180909 104 108 145
0.4418539347560957 -0.2714069021489564 1.1331046996891476 109 97 107
0.4463457741766577 -0.2678251075177435 1.1295446430547946 107 95 107
0.4899181011828297 -0.2276199093744624 1.1022844023414229 113 125 137
0.4826070033962799 -0.1943095347207935 1.0941126691916172 81 87 111
0.4454984536760175 -0.2166530483152850 1.1029054327826204 122 124 147
0.4567466745078622 -0.2599962264564458 1.1204770355942031 74 70 87
0.4151175513120909 -0.1805247648944253 1.0985345162875193 180 185 214
0.4442719936578421 -0.2448574420806175 1.1174367021627856 97 95 117
0.4943003871066690 -0.2194081794477160 1.0999975413483176 106 113 142
1.1833644568488531 1.3878681691275507 1.8097322727546092 187 155 116
0.4414242796109354 -0.2560492145546732 1.1214174901221028 160 158 171
0.4858222458484729 -0.2072020433222465 1.0957696588034518 193 199 225
0.4461298267662230 -0.2444852475155381 1.1102989189001475 106 108 133
0.5282676097765809 -0.1847359886539398 1.0888946269716724 94 100 134
0.4033847350289454 -0.2325546918842153 1.1192459811099673 176 183 201
0.4017523818931989 -0.1822271437143869 1.0960586864292636 170 170 194
0.4019784716279033 -0.1787360101139175 1.0994118146666352 108 111 142
0.3962441665465361 -0.2639938903296264 1.1290710965457236 146 147 168
0.4910916471812058 -0.1827153875566064 1.0943769647520809 102 106 133
0.4938589284362236 -0.1830110770406170 1.0902406022483770 116 112 137
0.4463962477701289 -0.2643512742491327 1.1262752860369698 94 91 100
0.4424662030665983 -0.2632544727486421 1.1266535054339974 96 95 103
0.3885965648413121 -0.2528091476802540 1.1245196561322786 128 132 159
0.3981477031424401 -0.1628306647222650 1.0949128109077801 116 126 151
0.4168856992197247 -0.1597128734284491 1.0942364752449454 101 113 155
0.3904978299843138 -0.2039031164599731 1.1098637374332740 111 114 145
0.4823478781960220 -0.1635518025941401 1.0866084493699042 108 130 169
0.3629161454978251 -0.2056337248724333 1.1144588512782605 91 100 133
0.4902627599620097 -0.2143389667718149 1.0966773429147387 96 102 134
0.4307265124658997 -0.2000247068459173 1.1006836954506771 191 192 212
0.5046287965429895 -0.2005080829899216 1.0941524377314102 166 167 188
0.4072130327001480 -0.1816658559295053 1.1023654228570656 72 70 92
0.5082418589489826 -0.1962978943422172 1.0931264347546699 82 83 101
1.1620283671047122 1.4057404840259209 1.8411742318477775 101 66 36
-0.0321432035615047 -0.0583962426437964 3.2459253842070059 213 156 111
0.4119397147183173 -0.3155617802348435 1.1707979345439337 129 128 126
-0.0209169210436681 -0.0498540081490392 3.2222423095036468 161 100 53
0.4200368402088892 -0.2998876572587378 1.1557849045938062 30 25 29
0.4704615578338090 -0.1997721063807354 1.0940567411838096 180 188 209
0.4359407354666068 -0.3150550027730941 1.1771778527450043 140 125 122
0.4067580028320125 -0.1872025579941946 1.1039183415641449 89 89 101
0.4433300100826944 -0.1824323222073984 1.0909767569335242 192 198 232
0.4663639652192312 -0.2796607215584896 1.1387369490131865 120 100 91
0.4265078843643206 -0.2914232719698058 1.1527670356703141 116 102 101
1.0021118192807219 1.6387359165103206 2.1538702912570669 155 119 87
0.2807822369425370 2.2980129010558858 2.7201918717045541 225 183 133
0.3801108291153392 -0.1467849004627536 1.0984909247841730 33 31 68
0.0239664617357419 0.3316845748751803 3.1856325458486694 158 92 44
0.4892734619741848 -0.1624390953245581 1.0829214274538521 27 37 64
0.0220558578815547 0.3512638106332145 3.1801671467904438 210 148 99
0.4796405206828313 -0.1929842709752061 1.0925045201294183 186 191 211
0.7588805212822605 2.2284422368790149 2.5661689914848473 194 150 125
0.4107064985004968 -0.3078046643788762 1.1603201839269426 39 37 38
0.2395392306121339 0.3735356971673270 1.1032447892563186 80 84 147
1.0518619701372034 1.5776902784976468 2.0486654528318415 135 97 52
1.1797034336858880 1.4227205571827326 1.8789648020786054 129 89 53
0.4887435710553809 2.2600272169463103 2.5663291984464975 153 108 75
0.2346098021743803 1.9281512715749711 2.9422775404447288 250 200 151
0.4239930800246084 2.0733867322744537 2.6885151851329900 145 95 62
0.4689365248773662 -0.1572134745252169 1.0850612168674054 30 34 61
0.1370300510280003 0.0502926290297866 3.0927160331612189 196 145 114
0.1151403152501120 0.2146784609777365 1.2169169288065984 31 28 49
0.4380397496918596 1.9595831984287759 2.8091685394927870 209 156 114
0.2099847718125987 1.6915628421592197 2.9737154752812045 207 143 95
-0.0406970790473962 0.0047338022124574 0.9259988356375812 137 101 89
-0.1290045855023668 0.1278210649643785 0.8632204342615186 42 41 49
0.5172347201593605 -0.2002861532460473 1.0922616832457896 100 100 124
0.4588315261940847 -0.2010551608450850 1.0983058788593714 96 102 126
0.4039939506959698 -0.1731616407250442 1.0992620229767145 141 147 181
0.4689691193144464 -0.1776348114214248 1.0887603673598942 92 97 139
0.4544400778774872 -0.2630572445104824 1.1226707776276699 161 155 169
0.4209725212933784 -0.1893877712119152 1.0995849106905038 201 208 234
-0.4172371314247007 0.1345949490537374 0.9285366236250355 188 168 143
0.5039057516404892 -0.1611929556778925 1.0849091444400152 34 44 71
0.4132478537615079 -0.1490482717006592 1.0923133572101744 43 49 81
-0.0081882360880109 0.0482842278199106 0.9522326378163061 119 88 85
0.1559639822087152 0.1762613960962886 1.1798234223585720 18 20 43
0.4532318613855829 -0.2553987214208008 1.1231295430058088 89 90 111
-0.1443356290847972 0.1092177610366034 0.9148987459025177 82 58 54
0.3987619536435775 -0.2328613591942605 1.1155027076561692 114 117 150
0.4217776393661171 -0.1950817516328274 1.1027468932281552 128 135 153
-0.4198514758275173 0.0024893767408063 0.9841661946671042 66 45 26
-0.1433915419057439 0.1503900060843719 0.9161433261037233 88 82 108
-0.4120363023021958 -0.0123775390241790 0.9506309466579005 114 90 62
-0.1333797393656611 0.1370665387836546 0.8648183267839796 218 255 255
0.0456267676608366 -0.0911100247606110 1.2766114550996621 142 89 47
0.5358680832303865 0.5353678439535977 1.1126805049017141 39 42 93
-0.1095844453455758 -0.0528357301481694 0.9411493631464720 110 91 87
0.4815015036351755 -0.2361221331175965 1.1060694031806539 87 85 109
0.3697242067335138 -0.1515249936757157 1.1040194175746867 39 42 73
0.3636600274884692 -0.2003521850879032 1.1131844903325494 90 94 119
-0.0105867841223441 -0.0007534823922757 0.9473401947929683 226 221 251
0.2079513997298693 0.0730768760042463 1.1246262447404662 66 68 106
0.4550211311658094 -0.2153677829118832 1.0999021416259223 162 164 185
0.3920540143060660 -0.3250671534879625 1.1797034131844883 86 84 95
0.4299711948508422 -0.3253807982976383 1.1874430019352098 14 12 13
0.4234091938915580 -0.2010167778119261 1.1030164004859853 183 184 202
0.3733745586065824 -0.3014896535679961 1.1560028302605860 136 129 137
0.4321645899186379 -0.1927792993035631 1.0974828891613946 184 186 209
0.3854868368543874 -0.2784464213410965 1.1373295795548017 79 77 98
-0.4007170992001321 -0.0524771201462418 1.0109591751966538 86 73 64
0.1940001739486228 0.1150431722555071 1.1441469924000021 5 10 32
-0.0878867877538239 0.0298711774845508 0.9131639979273501 172 156 159
-0.4543890755719286 0.1280410559827638 0.9530664869691090 232 208 180
0.3014205207090810 0.3367333794413908 1.0777394411197885 67 71 109
0.4689119832617331 0.3287227927627667 1.0793077875310990 70 76 110
0.4792415745662500 -0.2434405163312027 1.1062034791805710 123 121 142
0.9167234113804457 1.6655620927836616 1.9755458466865454 156 120 88
0.5157253001837374 -0.1795134773125801 1.0836141171186915 197 212 245
0.4669375079773556 -0.1667850133907909 1.0864152559117897 95 108 152
-0.4102712863018618 -0.0114267339090833 0.9619638246949477 115 87 65
0.8062234128686234 2.2304752712293281 2.2499790990864006 140 105 83
0.1734121498746343 -0.0262396771040168 1.1436092101867976 49 45 62
0.4591298065601225 -0.2415831002290388 1.1113002065556412 188 184 207
-0.4600850847903530 0.1273034220461202 0.9642024290212943 234 221 187
0.5123872917844771 -0.2070924308981204 1.0991438621991403 130 126 153
0.1909665931887775 0.1190033492514130 1.1441554377493364 21 23 46
-0.3223203524569551 0.1139142043133624 0.8543290303078187 130 117 111
-0.4323372848698575 0.1193981962333603 0.9428115176301598 139 111 89
0.1669535325306552 0.1611882861748568 1.1682015114222182 13 15 30
0.4436562574875315 -0.2008408966539216 1.0982356585546054 178 183 203
-0.3939314699566199 0.1801787561684048 0.9350692601676313 203 186 166
0.3641018616122081 2.2876860338607110 2.5785380636837769 208 159 119
0.3593321999316587 2.2648738733392038 2.5583193195667708 208 159 119
-0.0361793992157712 0.3489201721214998 3.4115281260798014 235 172 119
0.3656033234225776 -0.2785635385843958 1.1531654425586915 86 84 106
0.9752564342252555 1.6356161631330137 2.0240302399733969 183 146 104
0.4031682327733507 -0.2693474583703657 1.1333865230995415 75 77 92
0.8015945960219109 1.8744283172876641 2.1861729167296886 153 112 68
0.2810266914859217 0.3414146140269795 1.0800011121437996 64 68 106
0.2559334100782604 0.3600531704310757 1.0947338648064298 69 71 110
0.9665998529205807 1.6475942075629786 2.0255571181609349 116 80 46
0.7552487897699713 2.6029990618180348 2.7299993527577016 168 141 111
0.4713042664987918 0.2811255661826588 1.0776968278823515 67 78 132
0.7407459164556364 2.3214233486904816 2.5957248939329105 211 167 142
1.1547899766600258 1.4231445282229385 1.8019165883089974 160 126 91
0.9942785904540929 1.6017728304959897 1.8940369551223424 111 72 39
0.4159959510177981 -0.1542376460980448 1.0903196725013813 17 28 58
0.3754592609205311 2.3366991641205557 2.5425936424844555 174 121 87
0.4087171961544011 -0.2635038827702862 1.1291124442956590 183 195 219
0.8619193205227966 2.2992795860965858 2.5529774105416925 199 159 134
0.9860031182608361 1.6262017660049723 2.0113929839549538 178 145 102
0.9811770896435168 1.6158201176287386 1.9896915844174405 109 75 38
0.4540626390221770 -0.2633469407871584 1.1221739399088269 161 155 169
0.9827174134021562 1.6209673681100691 1.9352481394426246 154 118 86
0.9978804646667103 1.6019392969646211 1.9081782548179649 183 147 111
0.7669344178851925 2.0999307996831020 2.2131391064809316 242 215 186
0.7964572069291131 1.9706620136120840 2.1281385227111174 215 173 135
0.7720599763843007 2.1417534381111776 2.2367294175358099 158 127 99
0.9670344890120837 1.6429020995418080 1.8720885491700625 194 156 111
1.3669371287031300 1.2976344002146707 1.6637261606957712 155 126 96
0.3805670918419852 -0.2393907960053000 1.1168375504692798 115 124 165
0.7759912823850582 2.2108677796896568 2.2591772013089604 180 146 119
0.8237339799030537 1.9497802700602966 2.0531374854842075 201 167 121
-0.4374534700891471 0.0024699878958787 1.0021824078555135 122 97 67
0.7585730466080618 2.2670600012471702 2.2752683714035506 222 200 186
0.7929833543552601 2.2532507757060656 2.2451310926176151 146 115 97
0.3866833109725892 -0.2322682872013702 1.1168379963731823 101 109 145
0.2898725461617219 2.2210690088723295 2.7498817651201146 185 118 63
-0.4904962782694707 0.0904248851957534 1.0227226903699036 143 111 86
0.4254124277950514 -0.2272430065049088 1.1117943076281922 181 182 203
0.0582641493935514 0.5775193751848255 3.1325294833506363 137 73 27
-0.0627791547867937 -0.0177983129745795 0.9009070029549020 134 91 85
0.4841041638733734 -0.1844409098553347 1.0907863148869448 185 187 208
-0.0632931839862740 0.0050567957406264 0.9093318107025727 157 116 122
0.0401179932594001 0.5719325229137454 3.1531913829145584 135 81 43
-0.4560324195719478 0.1267321373832120 0.9630768601476865 116 91 69
-0.1364200000830575 0.0944656265682470 0.9100806719694781 106 75 80
0.7390192835643939 2.0811893565945740 2.5108433034024711 192 161 158
0.5389251119494263 2.2853712704231079 2.5414898715588845 172 123 91
0.7399590040715222 2.6058014155028424 2.7407850538087604 200 178 139
0.9975432716605238 1.6058471025610201 1.9501172033856482 103 68 36
0.9334212685784131 1.6758703282620409 1.9960149229609647 109 74 44
0.9356390033474973 1.6696999683862197 1.9746416219390164 169 133 99
0.7657761230226956 2.6763837333376070 2.7473190418633608 178 117 73
0.8649079207140825 1.7369087890099031 1.9947324471711452 193 158 116
0.1113571297415020 0.2242398346693950 1.2193185739474990 85 81 114
1.1202092830684001 1.4724542703109074 1.8167370583099969 181 147 109
0.9226987682490929 1.6741981389313763 1.9428643425188661 171 133 94
0.9125361805850394 1.6904136818557518 1.9533442413206721 122 82 46
0.7965547945680760 2.0869341187218264 2.1803584630545494 152 117 89
0.9118268226762464 1.6890046106831706 1.8860443182870767 123 83 47
0.8332253592195134 2.7994481502096211 2.6684714384521500 219 168 123
-0.3793166230589197 0.1637006837803822 0.9253035471505735 131 117 106
0.9411586553335405 1.6387353507600824 1.9245780048616317 175 133 93
0.7221079950010733 2.3393054497345362 2.5985768854898508 172 117 86
0.7226195485762893 2.3479992042907347 2.6057074839965240 161 114 86
0.9709849998537370 1.6462200128656219 1.9208989682533342 100 63 34
0.5826463855881618 2.3552096555547832 2.5558489477827830 215 175 149
1.2764596797035928 1.3661440292625180 1.7374304901733419 155 124 93
0.8625485757872534 1.7364271210127031 1.9599517377327063 115 80 42
0.8118993638627381 1.8523515938191930 2.1662918210695370 225 192 139
1.3913782290938752 1.3063892493814546 1.6660620948553766 84 59 37
1.0909334819075021 1.4907420226784112 1.8779017390949031 195 158 114
0.7579772586294078 2.6619901900967169 2.7607835937970964 206 180 147
0.8193887938795953 2.0446821837157447 2.1085868064693156 247 225 202
0.3745180606685722 2.0176587778556434 2.7659856632274891 104 56 20
1.1802161261131479 1.4207213958569558 1.8156649491216010 105 72 41
0.8103011482072596 2.2286649078940601 2.2217060086265672 134 106 85
0.8758450452812678 1.7184813582369816 1.9913655175258729 100 63 36
0.9278482498530607 1.6394121045172361 1.8966454230427443 175 136 97
0.6048110788280322 0.4375535950856707 1.0728179736875796 41 48 90
0.9770863475739276 1.6353826627426864 1.8841233514353555 122 84 47
-0.4038571490417658 -0.0300037352600423 0.9677264487852284 37 33 30
0.4526894800100904 1.7003839325665813 2.8379800787092266 208 163 130
-0.1426650096905245 0.0836907335649135 0.9073616255710875 40 37 46
0.7641717552301850 2.0924852163518124 2.5493255996188426 192 151 133
0.1695279526367725 0.1241157386599002 3.0924320645219132 186 132 94
-0.3853517896887051 0.1836983823545296 0.9242884919160304 246 237 222
-0.0717858457065031 -0.0335445821973075 0.9390797249604547 66 33 24
0.4048743590189878 -0.3221884212037925 1.1818108800090357 75 70 77
0.7410084529414828 2.1458827052267693 2.5487138157163303 193 160 141
0.7769800642150473 2.1934263775330991 2.5481187497249915 198 152 119
0.7730467536768947 2.2338079301431719 2.5555397125315498 163 113 78
-0.2120025615228092 0.1590363520438042 0.9275439012074747 190 175 180
0.1560349798396053 0.4778083529798361 3.0655006065638299 156 92 46
-0.2004437985360072 -0.0885524240222272 1.1793816160271857 173 117 94
0.7414787847463802 2.2782342835604847 2.5825240299115180 140 93 75
0.8015959909401627 1.9020413269865917 2.2148445969382324 159 121 76
0.7468878459938453 2.3476162422675415 2.5650062246987155 115 85 57
0.9407982747712970 1.6695165077918699 2.0320907249858968 121 82 51
0.8759350805638062 1.7226412176451651 2.0262206914289838 197 159 114
1.1106599636978178 1.5059768730173830 1.8602882475496443 188 154 109
0.9129509064115302 1.7087455265270028 2.0372430105734991 118 81 52
0.8052660914005724 1.9040468796452215 2.1405546997488143 220 183 139
-0.4725278079321789 0.0847812720962615 0.9985893624125569 89 62 41
0.9580278200800597 1.6262081348743498 1.9334918088687085 167 131 95
0.9613708491342094 1.6333777247393859 1.9390350181643050 167 131 95
0.9140379140062455 1.6900769190309175 1.9275715705077701 176 138 99
0.7305506336716686 2.0959075123624253 2.1926391396511349 232 204 164
1.3559624453311321 1.3284111860428498 1.6387967150629468 204 195 188
-0.1390349466513683 0.1404461656708690 0.9349348923415453 228 212 189
0.7594718628585595 2.5340557540810860 2.6723856712849825 202 176 143
0.7714063146831268 1.9504777112743625 2.0872015259740522 243 223 198
0.9983977338771559 1.6418253949502803 1.9871433693078646 106 71 43
-0.0847985296387986 -0.0412107018664851 0.9289806837250322 152 95 78
1.2933810932582721 1.3459816079762565 1.7486009383155914 183 153 119
1.1304588049994653 1.4912017423497399 1.8196382134807048 186 153 108
-0.0205436104580864 0.5058659583350241 3.2785643965712192 184 122 75
0.9217311389097369 1.6752789624564131 1.8852392079904556 120 80 45
0.4239210247809080 0.2837280284006208 1.0665101887125499 62 75 128
-0.4010845974248644 0.1480814036356455 0.9267012375484914 73 63 54
0.5026446959356822 -0.1917298083682425 1.0927248059487471 151 152 170
0.8361692654896444 2.1573333442673119 2.5682423448689669 200 157 125
-0.4603419712512611 0.0198599785604791 1.0964349228055745 72 55 39
0.1446293079389764 0.4273981750452542 3.0580123552045286 211 150 105
0.7558007017898447 2.2514430952757447 2.5782770830048447 172 126 102
0.4365445461516477 -0.1640666998206086 1.0903446030474626 203 216 251
0.4691569581665236 -0.1564702224796290 1.0839780697888100 32 34 57
0.7902088840123423 2.0089124350042344 2.2761750530546898 232 196 148
-0.1711805682399677 0.0777221059539206 0.8816022291736981 57 46 52
-0.3221113708397058 0.1653111766506021 0.8876329548625116 99 91 89
0.9203018519598096 1.6740606759087635 2.0722000193535490 193 157 109
-0.2179632708387849 -0.0850109643784129 0.9456736508485616 71 46 39
1.0237060437451244 1.5821743657376568 1.9375346306874741 185 151 105
0.9637455799667077 1.5867682295789394 1.8798939489386266 135 96 63
0.7973687460524036 2.1867791602722972 2.2183053596579163 139 111 87
0.7946961199277736 2.1384304829020477 2.2793559891993218 249 219 185
0.8693061884856652 1.6950260351457673 1.9515495676173296 155 116 85
-0.4854065661778863 0.1067714656628011 0.9919136936475788 240 220 185
0.3902612823937671 -0.1695834417337520 1.0986069154646527 196 210 247
1.1046403407911729 1.3819814983479362 1.7701385664357645 116 79 50
-0.4600551852033696 0.0868000678184797 1.0785724112140138 117 89 67
-0.1280856936709142 -0.0403127973004397 0.9518609360214686 124 83 65
0.4064680778411061 0.3240202272501534 1.0622276519343912 13 14 19
0.8628756660664483 2.1159674596519538 2.6171183061004530 133 88 65
0.5612621389125871 0.3317649272297790 1.0791874067940659 31 31 43
0.4866905989217459 -0.1961635572837563 1.0946160623213788 128 133 153
0.3719013688457207 -0.2955618582681756 1.1482139508207776 81 75 87
-0.1420534702906230 0.1424590363813358 0.8912971207851551 63 45 43
0.4445177596510209 -0.2780107126581303 1.1387604334043215 50 31 27
0.4719700825941615 -0.2727110802770197 1.1340639750590251 94 69 62
0.8996816882361086 1.7076182393886346 1.9772685825635692 118 77 47
-0.0575197371924615 -0.0083414846054130 0.9148872151191939 185 166 172
0.4423430724109400 -0.2452162997034116 1.1149628313319739 114 109 116
0.4746805903739486 -0.2313473098826655 1.1031273563781119 130 131 151
-0.1412308167870641 0.0917585162090325 0.9053841744901234 76 54 56
0.3866170070687510 -0.1539186439933483 1.0988332404295247 114 123 166
0.4477025789851055 -0.3032227044736127 1.1630990677183748 50 25 20
1.3014516861704404 1.3397876358967094 1.7181681661727624 121 90 61
-0.3857799451825043 0.1641490914787294 0.9235852040922968 231 218 210
0.4194108237877237 -0.1983386758526129 1.1001407200499427 127 134 152
1.3174495816710399 1.4242669028904420 1.6565111922037459 172 145 116
0.3901326199764701 -0.2622784703254291 1.1273729961868690 148 153 175
0.4296055749516953 -0.1717777880285137 1.0915482612436933 129 132 165
0.4794047127866991 -0.1658365024414457 1.0866409961634018 95 102 148
0.8521820157861447 2.1879247052113158 2.5582322040790100 188 167 162
0.7989425503064930 1.8796982107743505 2.2033150718043109 161 123 78
0.7951414165633895 1.8518013147551062 2.1788619314946365 222 184 137
0.8014056362886134 1.9197394603714375 2.2101766978420003 170 128 86
0.8100090328135262 1.8798269427580165 2.1774073777052196 156 117 76
0.8920138234312369 1.7302806556475472 2.0296549867012268 108 72 38
0.9744127254768438 1.6310016038483863 1.9453529038743453 163 127 91
0.9068095139717202 1.6878432051912868 1.9707797737391233 106 70 38
0.9156181261575129 1.6918860331707550 1.9745545192686771 152 116 80
1.2691430664355559 1.3731961093407872 1.7970809208696501 194 161 126
1.1622640074745778 1.4481200577852062 1.8143857618830090 105 70 38
0.7842651256195031 2.1484853683734415 2.2487008384500804 242 215 186
1.3594720472368464 1.3603942426625242 1.6829032228862879 163 138 116
1.3660064271511809 1.3519936499771774 1.6716314968367767 164 144 119
0.4919601978729241 -0.2168135527480287 1.1010550871374745 172 179 207
0.4341141556275743 -0.2014789065679687 1.1019998787201066 193 190 209
0.2886604737128683 0.3414426844746373 1.0806482532140522 64 74 109
0.2934375074889409 0.3384641299247461 1.0786591470920777 54 63 96
0.3324274148445199 0.3253435727697371 1.0714745681103306 57 61 98
0.4066121830988417 -0.1874077612649182 1.1035050545206435 89 89 101
0.4095145441077695 -0.3118796993026202 1.1668851525916659 23 19 18
0.4352594381686574 -0.3153281073653512 1.1759277436923905 140 125 122
0.8596828359824936 2.1886661419525182 2.5485228609663504 168 117 88
0.8542391107777161 2.2083321328568588 2.5454396573252356 170 126 91
0.8480456379260842 2.2031047577564902 2.5287637059152979 170 117 83
0.4116979637629693 -0.1829080434357284 1.0991960597859052 126 126 138
0.8418088047094241 2.2346578497088538 2.5247434793825523 175 125 98
0.5490144897888729 2.3078208379150675 2.5423621160993188 212 175 149
0.3918308778321441 -0.2480543457000068 1.1227993284839954 97 108 138
0.4499728704468787 2.3702951464514426 2.5418107459427799 155 119 83
0.5352441710507911 2.3661150923538590 2.5490927977804718 165 121 92
0.8131831991973331 1.8646125578111585 2.1636956226391306 238 200 151
0.9489521317167245 1.6888982576157303 2.0561967174373867 118 80 44
0.9768993180513472 1.6323235747757709 2.0085633360522666 112 79 46
0.8114807436897246 1.8583969567546181 2.1431850847522513 184 146 101
0.8995943663994489 1.7043678112705760 2.0334553339620705 115 76 47
0.4436952795189384 -0.2696356347889945 1.1326775700042258 94 83 87
0.8971535993634788 1.7252522701838220 2.0375862690624533 123 89 51
0.9469422524169527 1.6619440180976610 1.9971419411343014 163 127 93
0.9530906609194782 1.6563307262325486 1.9902608961318455 101 66 34
0.9915099209772673 1.6116892723233192 1.9729044399154276 92 59 28
0.9657124403793064 1.6563671016083148 1.9763414339557126 108 70 34
0.9646445211520719 1.6433257742858194 1.9589076725964580 164 126 89
0.9200641409869852 1.6806992973654831 1.9616823402176027 112 71 39
0.4405602270930277 -0.1670439854594831 1.0884218468667730 208 221 253
0.9034148144490303 1.6989559678397594 1.9697803826683882 154 118 86
-0.4113409843653603 0.0079557043436030 0.9506845552482699 38 31 21
0.4804001194018466 -0.1720913036921925 1.0875763335638229 125 146 193
0.4579810044392155 -0.2481149587806659 1.1141493333994583 175 173 187
1.2900314484679696 1.3701864871016165 1.7831922053244065 120 85 55
0.8968144207374911 1.7053703243619525 1.9510430716483871 153 117 83
0.8012891442120575 1.9400504315985314 2.1048690697821537 142 98 61
1.1310036814880713 1.4582291814267545 1.8016165043356298 157 135 112
0.9443753842327468 1.6910723121342355 1.9513271102396652 125 86 53
0.7852613795525556 2.1175397069081887 2.2100340484926724 216 182 155
1.1572447319930830 1.4610510098640610 1.7913298001885365 131 97 62
0.7918209768177791 2.2217549907978862 2.2347697175708223 191 164 147
0.4791472597865502 -0.2507486383140482 1.1158557825317572 60 42 38
0.3792776615610222 -0.2170440807875583 1.1139062687358203 201 211 246
0.7723070590331793 2.1428425367880903 2.2376807584438940 179 141 118
0.7989522395040413 1.9533635817255732 2.1011463076621788 203 161 121
1.3632140076638330 1.3648860165656276 1.6428100132530796 193 185 183
0.9828541079997827 1.6085966997767487 1.8774006986490970 116 78 42
0.2481896570094515 0.3683579691118328 1.1002122144654192 79 88 143
0.7764579769240283 2.1897587265263994 2.2569526772010593 226 195 166
1.3593370924470427 1.3823528006192383 1.6343630777449787 98 93 90
0.7672477545552731 2.2267883572381506 2.2797841698829169 243 212 181
-0.3221347735303796 0.0842324094464090 0.8426699252007982 59 54 51
0.7588054923894954 2.2383098588907906 2.2679401582531189 159 117 79
0.8233859849880014 2.0873372266425361 2.1182816084955109 166 129 102
1.3699006312041464 1.3014847899050974 1.6392365029586233 175 156 139
0.8242338782879201 1.9728174389184530 1.9688082269517775 161 122 89
0.4068193799642466 -0.2106971740823672 1.1129890371504882 183 189 213
1.3155667245978957 1.4427739637872832 1.6748472239370664 172 148 114
1.3126436725600070 1.4280391848289911 1.6518874756801138 92 72 48
1.3295377511023174 1.4351254852494459 1.6564756367600606 168 147 118
1.3009451286252867 1.4394867015296278 1.6407971701987565 162 147 128
0.8249398750182362 1.9347288046880049 1.8777864961263702 240 213 192
0.3092593772276012 0.3353782665919803 1.0782988112609664 51 66 99
0.3458729019344013 0.3273629195477074 1.0747874750680786 52 58 92
0.2655377573262305 2.0624444180236927 2.7414795626587098 212 146 94
0.3549236552463974 -0.3084500952820335 1.1630506959076576 15 15 25
0.9451673096791874 1.6592454333501585 1.9634572308506064 115 79 45
0.5052542300201359 -0.1884211931417883 1.0914880682553671 58 59 79
0.9837082234371873 1.6130814207368598 1.9158472019972737 103 66 37
0.8210722207367857 1.8814104553523741 2.0593644359562795 157 109 73
0.8233743326735090 1.9235747842238935 2.0546090367739280 133 90 48
0.8279838646132939 2.1344343610652299 2.1738237030145240 155 121 94
0.9051025843388744 2.7251773138618400 2.4249544994039010 232 192 156
0.6477068553861803 1.8437187769943379 2.8822536273808859 140 87 53
0.9445039221193822 1.6549288286217483 1.8889897264326483 128 90 54
0.8614927504933737 1.7718215236318768 1.8224941670522914 238 203 161
1.0189315232895788 1.6070825109231632 1.7315642107998588 189 156 115
0.8929950073881653 2.1815975046952549 2.0904536174432042 164 135 105
-0.4324576031902709 0.0747598061620917 0.9391857417950600 101 82 65
1.3868714651775276 1.4145941540598126 1.6429958944835592 109 99 89
-0.4518038573351220 0.1272375962178900 0.9521898503539624 132 101 73
-0.4234171751297474 0.0668417180328082 0.9345345261480730 37 28 19
-0.0543603605672429 -0.0074425478413684 0.9233573485308871 155 139 139
0.2464927206116815 0.3843976872918217 1.1042691579563844 25 27 52
0.4312142027118964 0.4825996699328831 1.1028318802475496 75 87 139
0.8221531255723551 1.8474245349398593 2.0589917722490330 247 224 190
0.4013234212800553 -0.2281891387885704 1.1194991790276123 133 138 170
0.4105366051734588 -0.2228026194212777 1.1153062763755703 91 97 123
0.6727662984351677 2.4687150287146320 2.6320710734228658 120 102 88
0.4299084128946479 -0.3189919927521292 1.1792550150525150 29 28 26
0.8307971843634118 2.3394933789891876 2.2754613205270355 224 186 150
-0.2988909807758184 -0.0504396881938427 0.9655975906877708 95 68 39
1.3702717589040490 1.4222840671863008 1.6400390072450295 52 42 32
0.3759057635805446 -0.2700144296834990 1.1294030143761251 87 85 107
0.0647589189501626 0.5643027179132659 3.1375573928336360 227 161 111
0.7721148856761894 1.8937710709785434 2.1387396672472367 177 134 89
1.2272173791628975 1.4575862787158214 1.7060170489541477 186 158 119
1.3561942392326651 1.3940024518432708 1.6475935635591268 207 197 187
-0.2189426246795518 -0.0971476979092234 1.0868843066487792 46 33 27
1.3041438443354936 1.4395862852732093 1.7024132937640941 183 153 117
0.8677312669252157 1.7828283785812815 1.8545293745064402 237 208 176
0.8676539401257002 1.7833654199921032 1.8548271648345822 237 208 176
1.3703994830500172 1.3507066814302304 1.6262165739984664 100 89 83
1.1829916543759231 1.4912480248125652 1.7044072088471931 128 97 68
0.4894674312644093 0.5391968027327753 1.1247166983883647 44 52 98
0.8662571272590529 1.8701104013556140 2.0210897707451458 249 228 197
1.3374848861372466 1.3516614929478172 1.6524475198792734 223 207 192
-0.1959950195575511 0.0875556851651407 0.8825918440487186 228 226 247
0.4108342775823474 0.3282149967862911 1.0682975051202990 17 18 23
-0.1534624549485039 0.0682471288723969 0.9020019328437144 45 38 56
-0.2098926365498162 -0.0072198744486086 0.8811031619902062 188 149 150
-0.5098270526725774 0.0732609593061654 1.1233790232224630 236 217 187
0.5222143001750033 -0.1668559783940408 1.0857828435211161 207 227 255
0.4535827039757816 -0.2163902664862208 1.1015189559073881 105 107 132
0.5282560460982637 -0.1705829996991980 1.0866542516206483 77 89 139
0.4824043197219943 -0.2164165999860816 1.0992394119189548 165 174 205
0.5123199500557708 -0.2160799328849382 1.1061480696104269 52 35 54
0.4669478010552709 -0.1658561697063995 1.0898289918026802 182 198 234
0.4419736004314761 -0.3142899017036810 1.1772086424144330 55 27 23
0.4357861836966112 -0.2965089222428544 1.1575846907967471 88 68 59
0.4520315295911484 -0.2564169663457611 1.1212446386951103 89 90 111
0.8430555622959550 1.9289675073009556 1.8664266281920732 222 184 148
1.2635395944093240 1.5271283335797134 1.6709336149301548 106 81 59
0.4388123786643598 -0.1783413390968704 1.0911646258358665 175 179 206
0.3913346353464256 -0.2170845881933425 1.1136589441323397 96 104 140
1.2422673047755814 1.6021246246264358 1.6131560922090087 103 89 88
1.2682084028763645 1.5939815816303757 1.6134166784684778 78 67 61
0.4641396999160809 -0.2151390934074570 1.1013910129623903 177 178 206
0.9608219431887894 1.6480928038241949 1.9857563401911016 162 123 90
0.1078250973690471 0.8980337821532756 3.2256438502169860 189 120 65
0.4867380223098938 -0.2014935619856453 1.0964669890564187 191 196 218
0.4433329746720460 -0.2699182173565765 1.1321229021460364 116 105 113
-0.2566657260886362 -0.0940393678121813 1.0996354750364354 83 74 69
1.3093172597020102 1.5431600024093399 1.6192780809514460 85 74 68
0.3767154543471830 -0.2388814492612323 1.1173939907660475 212 228 255
1.2604030890467106 1.5709470989817989 1.6094438697443010 149 140 145
0.8825008184988943 1.8204467854458062 1.8342259302937134 229 191 146
1.2402751672896601 1.5635776821888536 1.5710713666109066 84 73 69
0.5090359328390340 -0.2047876821008751 1.0987181798511980 114 115 136
0.2736113859090821 0.3447622576786288 1.0822103178109734 55 63 102
0.8817709487448639 1.8889815631991618 1.8358258016335438 127 89 44
-0.4687564721417460 0.0156763898617173 1.1485482904950790 185 162 131
1.3097280313044859 1.4736973166974559 1.6546840692889078 75 56 42
1.3509491924340371 1.4351960253084242 1.6414872786798940 172 160 148
1.2081390813180881 1.5523123123722571 1.6502021252578363 172 147 125
1.3186090186435198 1.5048440980689737 1.6314330100355736 161 154 148
0.4428484224158344 -0.3175982853763780 1.1839899553615545 55 31 27
0.4626406506358786 -0.1746201063284208 1.0893802799231918 109 113 160
1.2831884715849116 1.5644859208252648 1.6253280512017056 192 183 184
0.4900220803863866 -0.1926119067019979 1.0917377461296147 190 196 218
1.2854887996970958 1.5870925076545594 1.6260379025270300 76 67 58
1.2156955964641607 1.5848383680335902 1.6070830338826307 105 95 93
1.2729458459731318 1.6077320817209864 1.6118132779223073 186 182 183
1.2455563260575970 1.6209156966966267 1.6037737809430772 132 122 120
-0.1410479347237474 -0.0167521082073077 0.8727553861061400 107 101 115
0.4110303586535449 -0.1590417251103274 1.0940931613660130 93 106 148
-0.1360505708378017 0.0790197212140759 0.9017607853118086 133 123 132
-0.1428203412024768 0.0723731472099911 0.8886788537278776 122 122 130
-0.0830150493341874 0.1490472362964724 0.9425227899679867 218 188 154
0.4265891395054699 -0.1841319474871571 1.0964665341154827 94 105 123
-0.1669893709708537 0.1031530468296261 0.8802670122641163 170 172 184
0.0916815514078458 0.8621137420365176 3.2357181950387859 249 200 160
0.8370573727811378 1.9343089419411628 1.8927458994794959 148 110 65
0.2640964785111444 0.3518032738293181 1.0878703489313859 76 87 133
0.8719681805709619 1.9061255701276758 1.8082531881540698 143 101 63
1.3511958827450987 1.4773662898908582 1.6473393275359929 162 149 133
1.2758797165707967 1.5146168689076669 1.6418177527575337 171 149 138
1.2658318477904120 1.5412471125743905 1.6242162150301349 85 71 62
0.3876280084124610 -0.2802279682945735 1.1376739047027400 154 148 158
-0.0903730204274631 0.0127867772598723 0.9040663925563795 140 98 100
0.4473638376577941 -0.2343296926592004 1.1001168595820925 180 180 204
-0.1592081413032823 0.1189486207581429 0.8913204361997222 51 46 43
0.2364139294879019 0.2947235588410598 2.9970950435587889 210 152 112
-0.2216647460724899 -0.1216218560541995 1.0054228957881788 148 125 91
-0.4938907830988724 0.0516667037871038 1.0702051807120452 114 93 66
0.4967748230918717 0.3035580162455983 1.0992166649631294 19 17 28
-0.4138241133158838 -0.0244085004915642 0.9779088011907332 93 74 57
0.5099699377034626 0.3278313193704404 1.1031927359723883 52 61 100
-0.1782471870195216 -0.1415191759152199 0.9304109549834469 115 74 52
0.0654124726923639 0.7097259164627254 3.1270688856184767 242 180 123
-0.0578362180595864 -0.0191829590298322 0.9310200182477821 146 122 118
0.4852344988183095 0.2604315811894608 1.0663932093880215 55 67 127
0.8694862367337304 1.9001102839650859 1.8045276267253929 143 101 63
0.1359468774069396 0.8512807421103373 3.1180307172308961 244 183 129
1.2214629321267843 1.5534863088173012 1.6309543296814555 144 125 108
1.2985534927139677 1.5492216126323772 1.6266232775205325 189 181 179
-0.2103960883728986 -0.0868516945783263 1.1418794287459293 161 107 79
1.2415380977903230 1.5564589931375301 1.6148069995918077 170 160 159
1.2587026074545886 1.6007704892825445 1.6207043116430850 85 75 73
0.4181647984870502 -0.1576970771051926 1.0969462027279069 120 129 168
1.2579336961049885 1.6095394153570288 1.6046020870655577 184 176 174
0.4999761520027063 -0.1685169727477351 1.0875877517813832 193 212 244
-0.2409206945052438 -0.1109414149759442 1.0533838302070002 64 59 53
-0.2465057463913018 -0.0919380987775989 1.0665351694943337 23 20 15
0.2823204501489004 0.4127422518593388 2.9906753346522321 200 147 107
0.8584112313945277 1.9162166709884723 1.8437624963517476 151 112 73
0.4140431180463984 -0.2964128935876680 1.1543562196911912 90 89 103
0.0534620874734336 0.5372287169807850 3.1262117315812632 147 86 41
0.8506742331972349 1.9494489635011756 1.8549773220799874 231 205 182
-0.2676542338756969 -0.0801405755051035 1.2052992087153114 143 66 36
1.2105471697042423 1.5369711153648795 1.6614060782876312 106 79 58
0.1593529705785127 0.7908210260118326 3.0140928814686410 198 129 70
0.8776764206050814 1.8775944039260160 1.7395934728189781 244 224 200
1.2017209490918452 1.6045957848726995 1.6223757369776202 188 177 173
-0.1405167246706414 0.0970969238464472 0.9037865937711558 55 43 47
-0.2563520405471971 -0.0874269392495640 1.1817316765821189 161 105 72
0.1253122171464138 0.9161380964448668 3.2030033760265861 175 105 46
1.2748565564817811 1.5104362140709748 1.6690793346202841 176 151 129
1.2105734405832007 1.5704335897592367 1.6262578437648318 118 98 91
-0.0108026339018336 0.0001819599542678 0.9422620458842346 204 197 230
-0.0195259869435493 0.0003040982780930 0.9328665278291215 114 69 74
-0.0407845996981560 0.0063005435378161 0.9272521376089772 130 96 84
1.1874426058535947 1.6256809965653141 1.6280433230181626 137 117 106
0.8608803099747165 1.8948803458725443 1.8212009478527436 148 111 67
-0.0949226822616085 0.1270731489961777 0.9373859947263572 188 132 85
1.3114683772192779 1.6019640349219972 1.6265542057400226 65 55 45
-0.1570627914979125 0.1177935148846630 0.9068202201680772 180 173 181
-0.1763052405155974 -0.0681818735752977 1.2099353968169566 130 78 56
-0.2798279982329888 0.1302011190088653 0.8414554927716645 250 244 232
0.9131247089229393 1.7433265709477139 1.7650886119593516 168 133 95
1.3957199603402797 1.4648168608157217 1.6506274939790186 92 84 73
-0.2230754240298323 -0.0880045864642217 1.1941672611210712 121 62 46
-0.4795449116449073 0.0886833066199395 0.9668300984296535 243 228 199
0.0568280239838839 -0.1142125191659896 1.3356222945415435 33 26 33
0.8165680034249062 0.4240358474095271 1.0441918406820405 131 88 69
-0.3014970521099546 -0.0491223300966209 1.2148667630854419 29 24 20
0.0174990780698200 -0.0488874639129046 0.9681773209890437 180 133 123
-0.2051341345363276 -0.1106478672937465 1.0125253344994924 115 79 55
0.0412628897413153 0.0174674288178727 0.9870232158113850 211 198 208
-0.0165944836075848 0.0416185548356927 0.9647767847699689 151 120 115
0.4842212304657684 -0.2227208610471487 1.0963675776004562 109 115 141
-0.4322080429831579 0.1559727723657653 0.9598278907702681 181 161 137
-0.3204691199701381 0.0917565781283529 0.8496465207213613 103 97 99
-0.2277924367393533 0.0782801574393253 0.8508443060871413 70 64 78
-0.1444976084465263 0.1508938441695122 0.8887746430071204 99 76 70
-0.2326848227179093 0.0825162727351050 0.8495588448495170 67 65 78
-0.1482575253053867 0.1424361647856820 0.9309107804401267 198 164 126
0.0164812953224520 0.5045053536071610 3.1234287062061683 232 175 130
-0.1138852845855832 0.1562638747499425 0.9064256998494996 72 57 60
-0.1962302742588677 -0.1256063619543827 0.9516127860680996 245 219 186
0.3597071367244914 -0.3274270812809439 1.1733799222909334 74 72 77
0.2738705110751450 2.2052344920493234 2.7396214922224478 190 120 68
0.2607558394266345 0.3575577476141815 1.0924758045193290 70 73 114
0.4004813881876527 -0.2276445101525101 1.1162231848560111 105 108 143
-0.1111440067695968 -0.0351524974009155 0.9391234668042346 101 90 86
0.1754194318460333 0.1457922808345518 1.1573366200815398 33 33 69
0.3987126832421110 -0.1705011823700574 1.0919170817123938 195 205 240
-0.2096328888438897 0.0670173416270840 0.8631007175787971 144 131 148
-0.1398814959641843 0.1434246631097968 0.8813921728066998 72 54 66
-0.4560478436909871 0.0723562628062715 0.9747634421944432 102 84 72
-0.1989610285799449 -0.1234176894967301 0.9532715950754831 55 41 41
1.2807247110679560 1.5028430359704219 1.6620236973980345 184 158 141
0.0418349096667570 0.5137706483024197 3.0940512570189931 207 150 105
0.0386628093244014 0.5343313648871666 3.0873205097763381 206 143 92
-0.2103557743308020 0.1336751598004525 0.8865858221149989 232 221 201
-0.1920522454863671 -0.1306604143561260 0.9524120482640663 142 119 85
0.1410372844494904 0.3997476880257919 3.0350793064930124 228 167 123
0.3032688945135871 0.3959158269407599 2.9627023995805120 191 137 101
0.7539383714440491 2.5981643568695496 2.7241973632707777 168 141 111
0.3163504939493256 0.3336074434174710 1.0773239348280106 58 63 101
0.4285226007563065 -0.3233303176376516 1.1860485668518543 125 116 117
0.3154212751450815 0.4512529845990474 2.9359537028084102 124 80 45
0.1150004656733843 0.9585970615874400 3.2225715107204316 242 179 125
0.8961632057414806 1.6996675901605087 1.9979326852434152 159 120 87
