ply
format ascii 1.0
element vertex 686
property double x
property double y
property double z
property uchar red
property uchar green
property uchar blue
end_header
0.7071931535118917 -8.1932978962066834 31.4413058079323839 157 147 171
-1.6669052877939026 -1.3268879965644358 11.7650321191886356 79 54 57
0.5058344114217862 -5.4214919566157223 21.2702208203893335 144 130 130
-0.7139584179236221 -7.2201163028868303 28.4048631769045379 188 184 211
-1.2857187089236044 -8.6891713386643126 35.0882689113262884 196 190 216
-0.0189343490020872 -2.5045064823580527 12.5345029762073548 171 159 145
0.6581452341632819 -4.0505649416934286 15.7826479594944633 135 116 110
-1.5284569174093388 -1.1222504307542063 11.6777825771877239 99 75 75
1.0305746520006769 -1.3246286360538686 13.1808254088908274 160 143 113
0.0953086884608180 -2.3869870266582680 12.4182956114570242 165 156 141
-1.2947572725533911 -1.0797428864654823 11.6643773773523698 50 41 42
-0.5048567113976459 -2.8986328655238882 11.6849189545575740 176 164 188
0.9666353466091230 -1.2549517069967768 13.1324000815238406 47 40 30
0.2376198082020525 -2.3011740845552948 12.5876376011921831 175 165 153
0.6606822999103219 -5.1740129073024805 20.1898320666535334 146 130 130
0.7075981470169899 0.3435342905422353 12.7558105672373436 38 25 16
-1.6676894289463737 -2.0800206600102418 11.9766491356865235 67 53 52
-0.7141718703507002 0.6486240087987841 10.9471995311146770 77 58 54
-1.8150787077356805 -3.8388148667577062 15.8414395580668987 135 110 113
0.3888084408974489 -8.4334217716336894 33.2317805603081240 149 137 139
-0.9046214291856445 -1.8599937961100439 11.5342640544224775 78 60 60
-0.6758700617623327 0.6523846822854489 11.0240734103505531 76 55 52
-1.0779727402766501 -3.6392066813497634 14.6973162473792076 164 149 168
-0.9273277402509974 0.8594004017175867 12.0875713152516742 135 105 107
0.6071673400462291 -0.4610270553193005 12.1563514695953234 91 67 41
0.1340562562369409 -6.7103282412854117 26.8711255238074358 186 174 174
0.6081686350983805 -0.4185672678462004 12.0976690391266661 95 71 45
-1.4446101529593798 -1.7606810062507767 11.4964729048922027 44 30 29
-0.5800919290992328 0.8226287349889700 11.6357926682686355 107 83 83
-1.1661620449420438 -1.7271976326795619 11.3786256943454944 93 72 71
-2.1235690761470045 -3.0613150336621970 13.0795357608025338 128 101 94
0.3994103615492490 -1.8813966065671293 12.2328637550252637 41 37 34
0.2778313483129442 -2.3036252023593393 12.5090597298324315 200 186 160
-0.7472554808587224 0.8796137296958003 11.7727175171389771 146 114 117
0.4583885310716825 -2.1931967193005435 12.5110599068947970 231 218 186
-1.7238520760823839 -1.9819255500857953 12.0015509837875314 74 60 59
-0.5967436072785407 -1.6424713039478689 11.2890108214596161 98 74 74
-1.0302555774637947 0.0850477612450542 10.9181766677772423 129 99 97
-1.7288807104105135 -1.6964003997654988 11.9798846731237720 70 55 50
-1.6870897934362357 -1.6769798531755837 11.8859689717745702 47 33 30
0.7724253749217952 -1.8993032574220992 12.9910225297102162 167 151 126
-0.4126819105963922 -1.5073723350321329 10.2415308700683330 54 40 39
-0.9114762606998846 0.6118561392005466 11.2006325751921505 86 62 62
-1.3430030136842115 -1.5795319594345458 11.4253386806548090 117 88 90
-0.3039496815745405 -1.4654147923915093 11.6997723284347828 44 33 31
-0.2358533411726491 -1.4158522665499800 11.4201090813758572 58 48 47
0.9153635757066972 -1.6463593636227556 13.0467111731360319 228 214 188
-0.1224104975686665 -1.3239726177203839 11.4537180783070891 49 44 41
-0.2986035960804189 -1.2730173519043517 11.5495935666848464 180 192 208
-0.1247035495842012 -2.4710823789822025 12.2615421600401540 182 172 163
-0.4896385268022095 -1.2408137364111340 11.5519383216562126 55 35 34
-0.0787869822337327 -2.4541544919484410 12.4382235658186246 79 72 66
0.1859249289520512 -2.3752921979987076 12.4408091338229880 105 93 69
0.9483949190671533 -1.3871243256007737 13.1654281220686986 59 51 38
0.0918504395852223 -2.3458086210881688 12.3605501861580276 48 41 31
-1.3792218081257810 -1.0898468397265795 11.6137361708165852 119 120 124
0.3237396989409577 -2.2469182955032228 12.5440247154326574 196 183 166
-1.3818364724112149 -1.0924698668707280 11.6386350883655822 169 168 174
0.1813658199501780 -1.1249817835674560 11.6771299606802668 115 92 74
-1.2579248522111155 -1.0620592567013345 11.5583926232962320 76 67 68
-1.3696672150811489 -1.0219772352620085 11.5534533118731968 102 90 104
0.9910171562616138 -1.2338989622733472 13.1617144762803999 111 102 93
1.0594625336102887 -1.2027086106997986 13.3244870706234391 204 189 166
-0.6199849301553840 -0.7744119979933616 10.3669598728785886 71 48 32
1.1026261104630377 -0.9907028144214292 13.4812679334246042 133 119 108
0.1504634767372228 -1.9238817553036185 11.9720127352590993 78 60 46
1.0680990273121946 -0.8913676400016975 13.3753414691885233 83 71 55
0.7521308850196039 -0.7777850802780556 12.6517290728963978 43 25 11
-0.7064241982920939 -0.6110932879664535 10.9508710742355735 75 50 45
-0.5185395828208446 -1.7279289563352227 11.4290813955091490 99 74 70
0.8878525672866948 -0.6594990734397477 12.9956927436165657 59 31 17
0.5357941976403722 -1.8682347698920860 12.3854606894214765 26 22 19
0.7135847071727597 -0.3920039487660634 12.4686160839546876 84 53 32
-1.5635567985926959 -1.5357006439135510 11.3802128782504113 42 30 30
-1.9530818395279539 -1.8138787961774423 13.5934986401381437 71 53 51
0.7009398008115642 -0.1578724036801883 12.6677895753825780 79 49 25
-1.2053228337271293 -0.0401148186882552 11.0865350174276571 122 86 86
-0.0139392192816928 -1.3495773182358239 11.4788470686939341 59 46 38
-0.5693996328627550 0.7792086182792142 11.4781335091520749 107 87 88
-0.4170439104597440 -1.3158867543607520 11.4652840924141675 56 42 41
-0.3306228193321257 -1.2937925135190522 11.5670883364916950 38 41 46
0.0557035792298662 -1.2986792398645850 11.6291506748145981 58 41 31
-0.3236774329632995 -1.2300984409271156 11.4840448332535647 219 243 255
-0.3242885012630894 -1.2315768277005503 11.5297049061897781 84 79 85
-1.5098560390060125 -1.2652275878705261 12.1197301817278849 90 70 69
-0.0899009870256056 -1.2037174574495695 11.2681574207599304 57 39 29
-0.1333662560190134 -1.2044242917317940 11.3450747019934788 50 35 28
-1.0717569834283267 -1.1576109587624617 11.4129032275802587 71 50 49
-1.3171728644502028 -1.1660237274390242 11.6964894583814338 20 18 21
-1.4092968066136378 -1.0985167515184064 11.6173850298283110 51 46 52
1.0111911663812947 -1.2572974533490779 13.1064639198131498 63 54 39
-1.5835958786816156 -1.0355743713233272 11.7119144921941647 93 63 61
0.9742990454479543 -8.4772094946613059 31.3789443903806458 140 124 124
0.0947273478385678 -1.3328871798353004 11.7780833755033321 53 35 23
0.4261762788873360 -7.5808945094312303 28.4011348784232105 149 136 143
0.7958058588992529 -0.7667892060315467 12.7135723993304914 97 74 56
-0.4062956593232349 -1.2867602616524183 11.5541653224578109 41 27 24
-0.5168302093705828 -0.6021657598350010 10.8465002584060599 75 47 35
-1.3312933050925628 -2.3356770415008570 11.7827986646074443 50 40 39
-0.0532836271077242 -2.5078408950253674 12.4316936573404018 52 44 33
-0.0786719105146565 -2.5395016305531102 12.3345919978573999 204 189 168
0.2433499278923665 -2.3491312870969732 12.5699821431507583 73 62 44
0.0726979544138445 -2.2389962729566175 12.2585570006299669 57 49 46
0.1870537196192134 -2.3277312619997996 12.5397972563194919 160 152 139
-1.4659777739413424 -2.0895604447447274 12.5283733498915844 43 38 35
0.1534374155125930 -2.0994258847726384 12.0697403011197668 48 43 39
0.9679947794870533 -0.3182605909457849 12.8197424904952566 192 176 153
-0.7141042186018085 -0.9401264009060539 10.8771874125803283 113 82 64
-1.7464889032375095 -1.8969939412154631 12.1785971705118659 65 50 47
-0.5647510133620222 -0.0960900195153069 10.8020862411496026 81 57 53
0.3830940057130377 -2.1475327960002337 12.5147629051975855 52 41 35
0.9826173489846716 -1.3489197849291901 13.1996245479551604 166 151 130
-0.9179882780281787 -0.7784225573191214 10.8613374553814666 118 79 80
-0.8512999558729978 0.0591050226398430 10.7817588234002191 123 89 87
-0.5444844296013572 -1.5471180096105892 11.2895497178005080 54 36 32
-0.6044454723869253 -1.1074962674793432 11.2854919671557639 92 63 45
-0.3321223155037496 -1.4237420071554991 11.4639513941585456 40 29 27
-1.2164630215623773 -1.0975820741915583 11.6068955389895745 92 81 79
-0.8028559755075968 0.2718119482043111 10.6764757015775604 105 80 83
-1.2766063068954097 -1.2800471233111781 11.5799952064050444 78 54 52
0.9340779525516498 -1.2758629497203238 13.0957703858639611 37 30 24
-0.8719292046823822 0.7952028823118430 11.9956847745578266 126 94 97
0.6811014673883884 -0.5891472552544772 12.4919034124290871 113 93 69
-1.4380432367124998 -1.0390797313082762 11.6269806958151047 127 115 129
-0.3270080703561825 -1.3669603660397625 11.6067261364146379 30 24 24
-0.7488526137002466 1.0481668619292563 13.8100093320932569 114 96 94
-1.4441289620619975 -1.0451045173308962 11.6558702452357483 127 115 129
0.7212480837543034 -1.3424285519211032 12.4309987876320722 26 21 17
-0.8046732078603903 -0.3437801108022886 10.8059550029708866 109 66 75
1.0311874168696860 -1.2237204552877576 13.1706625478573471 74 64 52
-1.4092656191705883 -0.9569333462912843 11.8226026338022656 117 90 95
1.0439296791788453 -1.1371689113280581 13.2711965757998378 39 31 20
-1.7368527012112671 -0.2553491089254489 12.2236437818340722 67 44 36
0.8213570843216688 -0.3008536190593383 12.5846312516012038 120 90 64
-0.7883485429043150 -0.6955248812617155 10.8921368361316286 83 48 46
-0.5377620304019524 -0.6365834245079693 10.7882694832871344 57 27 19
0.5719584411196440 0.0184910070060972 12.1996070294239569 86 65 38
-0.7475804268779509 -0.6317752289465416 10.8936787159330546 113 89 85
-0.9717025785720578 0.0860167728145639 10.8809434133434291 127 96 94
-0.5262235935814684 0.8609824788693879 11.7216979775680574 114 95 97
0.2186511872419370 0.8608313074936673 11.9188959894562725 79 57 33
-0.3176023141693177 -0.5545920599899560 11.0046540926462537 98 70 49
-0.8296738617308952 0.9012578813365344 12.0206320128459581 150 118 121
-0.1485304107430199 -0.3482639422953216 10.9221535721767182 66 43 25
-0.8995898582995325 0.0252005981597567 10.8602327712382962 131 101 99
-1.0134206356068598 0.1449708606183950 10.8812693648034564 148 114 113
-0.9779208855738930 0.3786127176872512 10.7324300014024541 116 90 93
-1.1091534153752203 0.4873385887960270 11.0668944854928952 120 90 88
-1.1139617269678808 0.7186340171653212 12.2721307188331004 170 131 132
0.1535988219691836 0.8569567773805452 11.8070793076096141 93 71 47
-0.9817546651706802 -0.3562555452093641 10.8802188258446968 128 92 94
-0.4166199962369597 -0.4979841300144411 10.9041845614349970 61 39 26
0.0485281433067777 -2.3554445859723923 12.3529655472784192 43 38 32
-1.5836402559565859 -1.9432380362300563 12.2898348562114830 47 39 37
-0.5742974316560050 -0.4477317370152638 10.7902729865858209 87 59 56
-1.4257670270340410 -1.5753189562994485 11.5681476015566513 107 87 89
0.8979568911789898 -0.4464893139417902 12.7600863143806045 86 47 32
-0.1060805240214211 -1.2727522954478578 11.4781391533522701 74 64 55
-0.7399519627792415 -0.3117960948704949 10.8060353412943968 71 26 31
-0.3320460139836624 -1.2552349719961040 11.5048694744441402 59 53 55
0.1353157367546209 -1.5714070516329230 11.6250445877664763 68 51 41
-1.6574144826897232 -1.3975050301203211 11.8153612461841941 58 38 39
0.9285289205274531 -1.4609582851664433 13.1433041851976622 35 26 21
-1.2962591844282128 -0.0848333104904694 11.1429841847244475 159 117 118
0.0136447275884335 -1.1832357979495935 11.5665010386409310 81 53 39
-1.5483917200447876 -1.0282443374832320 11.7597727396939593 74 46 45
-0.0530631276015092 0.0596626193177542 10.9667176202960359 76 56 32
-0.9467546724088534 -0.6880232352262241 10.9943246248842907 38 12 13
-1.2456457919200026 0.2781518302122357 11.2201294883086078 154 119 117
-0.6737994998542073 -0.6782609559738106 10.8969097385482687 81 54 45
-1.4386053451899075 0.3683196860702955 11.8579177037485390 138 102 102
-1.3847271693290464 0.4476774798824402 11.7937385028446027 134 99 95
-1.8045278732407160 -0.6306551328436207 12.2124537137442477 86 63 49
-0.8750092203113020 -0.6424060506790089 10.9430511500753944 136 100 104
-0.5277036920279109 0.8040480315676976 11.5314733607560900 106 86 87
-1.1091479625948908 -0.3330296163226368 10.9442684758394044 101 58 51
-0.4346239778701586 -0.5955114647682633 10.9823281721010897 93 61 46
0.1540020771192620 0.8542495261891193 11.7737444490077259 93 71 47
-0.6519440005253250 -0.2383881748455908 10.7584672266096018 112 65 71
-0.8064513266374526 -0.5435119377864477 10.8467701621931045 67 38 34
-0.5354233692817137 -0.1464944158890635 10.8014561943447234 79 54 47
-0.2345137751928851 -1.3309172242700507 11.4994874061018546 16 16 16
0.0636999318326996 -1.2870299434745986 11.5594457504852279 72 49 33
-1.2003688164692823 -0.1930216519990033 11.0163406106454094 94 54 46
-0.1043607161893729 -1.8771978840187147 11.6726713354961422 104 76 62
-0.9494636559191241 -0.8744001325904971 10.8978398574123627 157 112 117
-0.5148572700510857 -0.9123492007340572 11.1660668803331706 103 70 53
-1.0004625685211932 -0.0390779717594942 10.9350082524708530 148 113 117
-0.4899971426843417 -0.0058388691646393 10.7672966239325554 108 80 69
-0.4900669665678858 -0.0033260982612325 10.7740193623097849 106 77 69
-0.1328995180979632 -0.0230247438839739 10.9468621762812237 71 50 29
0.0127851336193108 -0.2116210465483722 11.1376800657585058 102 79 48
-0.1924995934557908 -0.6387405797903823 11.3319650177721236 101 65 51
-1.2800153447976514 -1.1365968451362494 11.5194993904898766 37 33 34
0.8033938782176641 -1.0175648508783404 12.7134059119964036 20 17 10
0.3272551757486152 -1.0664669445577948 11.9857859117976489 125 101 77
-0.3976050058458672 -1.3788164254075148 11.4479425831038295 38 26 26
-0.6198759701420072 -0.4770224699355368 10.9506010715434332 89 53 53
-1.5595566406416799 -1.4370570201861603 11.6151381505401563 74 60 60
-1.1110711895393350 -3.4123224302498554 14.5043414512005633 193 183 182
0.6679027329285218 -7.0825800432421691 26.6147231383427290 168 156 178
0.7115204736997983 -7.9874034913839829 30.5495867145389433 174 164 188
-0.1950448933264108 -7.7813522192778688 30.0709154678679802 176 170 198
-2.6930243029297922 -8.1564919984026485 34.2377472072242597 154 143 147
0.2699128187071607 -8.6109187054519261 32.7418709687025924 178 167 197
-1.5361596497738357 -1.4025731075569583 11.6096392694621660 73 59 59
-0.5893494247934794 -5.1482209499505691 20.2125847084825239 178 173 203
-0.8923157234109215 -4.6227923607787700 18.2935005286562067 192 185 218
-0.6566338674135831 -1.2606848220360860 5.4501825723430048 185 178 209
-1.5684482326665017 -1.4157868053198115 11.8570872335896258 52 36 37
-0.5474218131421497 -1.2058960850004896 5.2002180771452533 164 154 179
-0.8481182590789934 -2.2841675520633262 9.3885468540615413 191 186 218
-0.1107860042803069 -2.4874083289924052 12.2271047054117172 86 74 60
-0.0285289081108065 -1.4068192197610274 11.6158895102375901 43 26 19
-0.7307252812317471 -8.2776293320712764 32.4864121710112457 190 185 217
-0.2477722136854713 -1.3619811149779992 11.3480220294323875 23 14 17
-1.4118580670833092 -7.1289788112018950 28.1307410044870565 186 182 205
-0.2955339732921872 -2.3391303074351364 11.7669650161802668 66 58 56
-1.2789343201905525 -0.1602300329242113 11.0731913883140507 147 109 108
-0.2251934941477894 -1.3490164183169213 11.4297261961422656 33 29 30
-2.4539454849781608 -5.8660278724104451 23.7906220285606302 146 129 137
-1.3636627449724754 -5.7243044449380260 22.6893894955723141 181 177 200
-1.1590306000655297 -0.0604920790431457 11.0418645048575890 126 96 96
-1.4024362259210665 -5.7113302747718597 23.0145715837803166 189 183 209
-1.2070351313665850 -3.4624638286608298 14.0825933695521943 181 175 203
-0.3037711914159427 -1.3259832348121703 11.4947952150158130 41 41 43
-0.0788889025443936 -2.4483804161313105 12.4266599183415885 79 72 66
-1.3153247398945920 -4.7348189573628332 19.3719144117426190 176 170 196
-1.6733415329332004 -6.4726242762855817 26.3403766460763684 174 165 194
-1.4422858328912240 -1.2348351401565802 11.6168484225405972 72 48 48
-0.6232606140383751 -6.5420507432864676 26.4388886499365903 167 156 162
-1.3465875444470030 -6.7651674127742494 27.5309542939631626 193 185 209
-0.0907954469171796 -2.1614970313272446 11.8701545904637396 36 31 27
-1.6940025997550436 -3.3032759772210998 13.6803983791612520 150 130 139
-0.3234266091082807 -1.2878229401986694 11.6185092890720139 47 59 75
-0.1429958540861529 -2.0704386481272050 11.5819530752459325 29 23 23
-1.5864903843170208 -6.3151356013629822 25.9257973017014116 189 181 205
-0.2402813259005518 0.0335974007931326 10.8669602106980072 72 49 31
-0.8186416781964880 -1.7570837695236106 7.5206110978082439 182 177 207
-1.4946942463007651 -6.2693608283911644 25.9411185511050810 164 151 158
0.2753815554314552 0.0194344718043443 11.3360808509953515 82 60 36
-1.0456204648162821 -4.2378166602377378 17.2735607492953385 181 175 203
-3.6121633314488104 -6.7241252537007279 29.1618832142909383 143 120 114
-1.9560064650906472 -4.1949910495841198 17.3338482864151615 162 149 167
-1.6050463427327897 -6.6863768362999876 27.1177507032824039 174 169 192
-0.0221652179858022 -2.4999166952522964 12.4474965245187832 144 134 122
-1.5539438250703430 -1.0712337360728119 11.7534370326104636 86 57 59
-1.2973754690962180 -1.0599216117444055 11.5458172420091163 40 35 39
0.0610645400487302 -1.8469505309562895 11.8312535068464193 105 79 62
-1.7179403897600900 -5.6395125901769507 23.0874312638372281 171 162 189
-1.4867023819231200 -1.7354536689860918 11.7204680382130384 51 41 42
-0.3866199112129497 -2.3081759737702243 11.7526469934578994 48 42 44
-0.7046508784781713 -1.1755612082292708 8.3047782277349089 103 74 76
-0.5078932987688130 -1.6602273756040191 11.2779401900579295 63 45 43
-1.2252171066166047 -3.5805029145660763 15.1319756380510722 165 155 154
-0.8860214034827002 -0.7592594935362356 10.8987741935956084 118 82 82
-1.2972757565537114 -3.5469677733261555 15.0506616223522158 165 153 155
-0.0180317246023884 -1.9684549121052206 11.7896129005799803 84 68 52
0.0242112101537803 -1.8937116870354462 11.8197552533524455 108 85 67
0.0243238583239536 -1.6837303419591734 11.5988497909891919 68 54 43
-1.8025253626417608 -1.7483513366609507 12.1837643502467206 61 47 44
-1.5940656029749769 -1.6000206207460943 11.7867032138689094 42 30 30
0.5241539638054711 -1.8673826526162003 12.3784821199233832 27 24 19
-1.1270224092032974 -1.5251687721179310 11.4073943088966097 100 77 83
0.5814997838371418 -1.7910190899711165 12.5090666496675027 38 34 31
-1.7934271367989940 -1.6083599556888202 12.1360033583282227 64 45 39
-1.3448601788044181 -1.4996521484580552 11.4426223686664255 50 38 40
-1.2252091202732409 -0.2785540267621240 11.0260343729185841 109 71 68
-1.2585513904335415 -1.5531048472629374 11.5672100844988766 101 85 88
-1.3517834063519720 -1.5253307838415333 11.4532359677425131 85 69 72
-0.5678393791845718 -1.5761403143506061 11.2705561433873456 75 57 55
-1.1711695940485671 -1.5214831601137437 11.5083718272522137 103 84 88
-0.8505679062845688 -0.1446609016235518 10.7576018336450119 136 95 103
-0.5980948218134666 -1.5745202836945484 11.3329767650183921 66 48 46
-1.4617858149134928 -1.4839942867093905 11.6176180208623112 72 56 59
-1.8797321564070681 -1.5454488898735603 12.4122673816614881 69 51 47
-1.0555469108513558 0.0801604332482141 10.9483128535464544 145 115 115
-1.1801511713089401 -1.4194332095587858 11.3963551100399965 71 56 61
-0.3043903471589054 -1.4038594346930529 11.4996358148998326 60 50 51
-0.2306191405062719 -1.3372018351651991 11.5216017586461383 18 18 20
-1.3677807447023134 -1.3977812657566506 11.6219115598909326 63 51 53
-0.0561000250516543 -1.3854639001698970 11.5469207526757831 61 46 41
-0.3596515253068053 -1.2913500963282980 11.4984091606718994 86 83 90
-1.3389937479818659 -1.2407315459358241 11.5818340012592156 71 53 51
-1.0423922092090858 0.6872947954447375 12.2525807295999183 109 79 79
-0.8480222114096828 0.7305634935253638 11.8601985720474481 106 77 79
0.9152103494463577 -1.5501517745282796 13.1399315684723650 109 99 87
-0.4889471030130169 0.8904665346817215 11.5725994096858145 91 73 73
-1.4440078041585889 -1.2057690550404223 11.6080095777382084 96 78 78
-1.0503168451641398 -1.2002881863895065 11.5597125695944687 86 66 67
-1.2817172371726677 -1.1683019881243135 11.6450588866362210 48 42 44
-1.0923096407838853 -1.1343234816137806 11.5111957684637947 92 71 70
-0.1501457244049078 -1.2986175428069506 11.4533475799754960 36 35 33
-0.9323934459969524 -1.0065548206660597 11.1656376946818536 127 83 84
0.9475479682548199 -0.8637086313375464 14.5915189198983644 80 61 47
-0.9925316530147877 -0.4904728378385197 10.8615565236862217 80 45 43
0.1280912734823983 -0.8186059072586648 11.3418407939448755 95 60 41
-1.0247315257626066 -0.4732370802907085 10.9116399228639125 93 58 54
-0.3238926987480015 -0.4501399324496896 10.8867276548874408 75 52 38
-0.5104518143316424 -0.3071720992723076 10.8203223497636838 96 52 49
0.2058654894727606 -0.0835733386386400 11.2816454143105780 80 59 32
-1.3491117315321188 0.1169819401344792 8.6929928836888042 138 102 90
-1.4113037297663849 0.3234357763197888 11.6710862679373228 150 116 117
-1.3987788184660226 0.3705083661108663 11.6776563240836957 125 91 90
-1.1747968076423712 0.3848480533065631 11.1575276372958534 134 103 101
-0.6642584524939474 0.8019493813098635 11.7391656321162650 103 81 83
-1.3253203282922148 -2.5466866887125401 10.6054223307264923 151 134 142
-0.0782679716579429 -2.5440382958963759 12.3503569018811010 204 189 168
0.0801091292269495 -1.5166318620259263 11.5658174337225628 84 66 46
-0.5013032322363928 -0.5349670457433048 10.8147760528486447 60 36 26
-0.3296952871264638 -0.5413437534508247 10.8491828897140596 94 65 49
0.2699296572414405 -2.2686575846221331 12.6955696263399211 45 35 33
-0.2599232546518799 -0.5249051098357087 11.0997494148212557 95 66 48
-0.8269350727807955 -0.4315488521812086 10.8125616811768079 104 59 66
-1.0082759072227940 0.1421233439236264 10.9056500080110101 140 109 107
-1.3624350755754309 -1.9742837077496793 11.6511943256782811 35 29 31
-1.0314032952138295 -1.2413370161420894 11.4621849001413167 123 99 99
-1.5936644472305181 -1.7576309512563477 11.7790368911220611 57 47 46
-0.7923879469428887 0.7281010472511359 11.7150199440130613 112 88 88
-0.9364889245924479 -0.2035614270974892 10.8747357506210580 159 96 104
-0.7476851170163058 -0.9066806120311596 10.8347869320465673 101 68 51
-0.9452236621780605 -0.8292794555519920 10.8139719475630596 142 97 100
-1.6545365012950912 -1.6003732105788273 11.7973772035437001 72 57 54
-1.1576627523988450 -1.5618027235666969 11.4018108790217862 124 99 102
-1.4168635260316533 0.1526865989440541 11.4871738786029347 157 121 123
-1.2214131908649370 -1.4510824714432804 11.3570052620429873 80 68 72
-1.4785018823250800 -1.4572498428681060 11.5507588564055546 73 57 60
-1.3744684805100773 0.2549866816146137 11.3489815437266355 140 104 104
-0.8255167444048035 -0.7711904828198856 10.8105306029666437 86 52 50
-0.6383635981538629 0.7560671898881476 11.6337860454335207 103 83 84
-0.8920483671448395 0.8467846951701171 12.0979522504120922 147 118 120
0.8770908172102235 -0.2301880236901352 12.7112254086693532 115 87 63
0.3066551576923754 0.1127957434094436 11.4640715445669876 70 53 27
-1.4177680119511655 0.2153032147858288 11.5641487426814855 154 118 120
-0.8924219835944636 -0.4376712888406072 10.8295958428540615 154 103 100
-0.6948407391020588 0.2931881763813184 10.6240756124778351 82 61 58
-0.7898013547034715 0.3826695088220535 10.6541659535883717 97 78 80
-0.6427320825076553 -0.3297631732460883 10.7260296146546263 67 26 30
0.4594862753464614 -1.9063660476713185 12.3942523040434835 40 35 32
0.8147273320186046 -7.4560530115075982 28.4105838047659631 166 154 176
0.2039435800618765 -1.3799222610776802 11.8857833976375247 90 70 46
-0.0997188395490327 -1.2699127264095318 11.4966216418383169 74 64 55
-0.7817653095329865 0.0426574629083473 10.7860104463205033 124 91 86
-1.5202493953586280 0.1692001445093111 11.8573766935255218 152 113 114
-1.6076869047132623 -0.8558532694143474 11.8556368520466222 132 90 91
-1.1779177521548705 0.5933171816543710 11.5259490329168575 103 75 72
-0.1292652121680818 -0.4678531366704857 11.0642453415566084 102 72 48
0.8206945905355351 -0.4941475453235672 12.7179968864351256 71 35 21
-0.7414234095275004 -0.0892333868125087 10.7817561065139280 67 42 38
0.0371723599981692 -1.3080346593265710 11.6150055039035216 53 36 28
0.4766574803421079 0.8958396008382159 12.2256452010001659 91 66 44
-1.0482400663073275 -1.1281951928630150 11.5077327182764950 108 74 72
-1.0247261804002530 -2.6948524617551191 12.2189687836239340 62 44 34
-0.0241127385774256 -6.5298221794341726 25.4893411754026182 162 147 166
-1.4833193920277710 -0.9754554931853880 11.7964200481057890 116 70 72
-0.5551929705429893 0.2275542879457031 10.6295374751103342 115 94 91
-0.1456879126235732 -2.5460041620208198 12.4308339101275465 130 113 103
-1.7823339814876471 -9.2025592804800294 36.4292787877435771 185 179 205
0.7129447682696664 -10.8416265598811865 42.0745240962552174 184 176 197
-1.7632838039968497 -3.6017941919780725 14.9825799853532544 147 128 134
-0.0105612640212328 -2.3479641571084175 12.3004876449287082 60 50 41
-1.8319227908444999 -5.6712640254283233 23.1621747843366741 171 157 180
-0.4149269430380401 -4.8199464601089410 19.5880489728127891 169 151 141
-1.3631363104286860 -8.4549156837846944 33.7847748470682845 183 177 205
-0.1039229460748416 -5.2504914252249586 20.9643035605995962 146 126 117
-0.3064622099894936 -2.6329862725867605 12.5559094086907184 64 54 45
-1.2781614531842005 0.6463564579934706 13.0829329372952277 89 62 51
-0.5395475050416124 -2.3470791389705767 11.7024575711055228 41 36 33
-0.3677155727697758 -2.2813457751193487 11.6961415441588343 40 32 29
0.2455033851133613 0.7150685749435834 11.9898332374014842 78 56 32
-2.2332559728215848 -6.5544252961973513 27.0127108110398702 165 153 177
-1.1467024543842668 -0.2108329693073084 10.9940574863284759 92 58 56
-0.0991265677978063 -2.2293292414705146 11.8502624280992528 33 24 17
0.0142739062251247 -2.3492811654572905 12.4471697479607126 33 24 17
0.0907777885454960 -2.2655292222040933 12.3519157373465784 60 50 41
-0.9933857899267486 -0.0083188897448744 9.9114284690051218 104 74 72
0.3226498839239085 -2.2847100908391833 12.5314233267529094 108 89 74
0.2847285662508143 -2.2831754806853692 12.5446125865985625 116 102 89
-0.5445344523797636 0.0561546868009728 8.9791505788533588 122 88 87
-0.3088871683468862 -1.4379012843010897 10.8756683182935934 76 57 50
-1.5119064421127806 -1.4245754795622447 11.5574151807307359 63 43 42
-1.3011600237943843 0.2153554873897666 11.0447871336632328 147 105 106
-1.5198283846487621 -1.3905591420940924 11.6482433130191474 51 30 29
-1.2538544567341028 -1.6833070898080904 11.4115780557419964 116 81 75
0.0046111362145058 -1.3947622870759677 11.6655204143829376 48 30 20
-0.2729845735907212 -1.3310756857109061 11.5425735056919976 16 16 16
-1.3884568920217428 -1.2344997318821278 11.5751756749936554 83 65 61
-1.4210959204902978 -1.4330827928462739 11.5645557412763136 50 35 38
-1.4393859710241703 -1.1798229652116363 11.5892869920819237 47 33 33
-1.4878104777548156 -1.4046259472803515 11.5402909935376830 79 59 60
-1.3041548072974978 -1.2522196321005870 11.5710427512746694 65 45 44
-0.7264760736643811 -0.7232357054401219 10.8569232597371261 76 49 40
-0.5852923343197037 -0.0155089176629556 10.7838267539722921 109 75 65
-1.6285800899479457 0.0319664170287954 12.5537607033407799 116 68 68
-1.0312187227890690 0.6744662692203123 12.3525063629840730 106 75 73
-0.6175242875096659 0.8654674662182529 11.6598422428696562 135 106 110
-1.3663250435685641 -1.9329063497628456 11.6771301042973459 48 40 38
0.3648496038423922 -2.1514796520166075 12.4210401558472494 59 45 36
-1.7167296452722138 0.0253726047630371 13.2105995924401327 152 97 94
-1.0074118576588833 0.2278669920023517 10.8247580830112824 142 108 107
-0.7792157531014365 0.3024174551900705 10.6198758736225152 114 89 92
-0.7613646819974090 0.4248205230086808 10.6494689344014546 82 63 59
-1.0678812696271522 -1.2184257716623759 11.5331326885715288 101 73 72
-0.2353544690379384 -1.1816185614763970 11.4431055970103213 78 53 48
-0.8472630228650776 0.6857111942033209 11.7716369703458330 113 84 86
0.9508513694308516 -0.6762662545875342 13.1579729834055463 45 28 18
-1.6165190920547208 0.1776595913327999 12.0370753374002515 182 132 133
-1.3351820779312109 0.2113328504449707 11.3808383782111715 167 123 124
-0.7870205595185691 -1.0311018706532236 10.8860689186136845 108 65 56
-0.4479758364705675 -0.4067948086403361 10.8321169347335609 80 53 46
-0.8118362035876086 -0.3602199698339156 10.8032725360728676 150 98 100
-0.4034882677509020 -0.3650557714498122 10.7613653130983664 92 69 53
0.3496134399020811 -2.0118981402387015 12.3278840135540602 20 15 11
0.1155901874650023 0.7620787511665440 11.8714572667633185 88 67 40
-0.2427860415069895 -1.6545367962520701 11.5444130534399800 32 22 20
-1.5471402078594401 -1.2903905673957006 11.6921560694663267 141 111 113
0.8331110808499639 -0.3839630499121489 12.9273708657188635 101 65 41
-0.4073513968538490 -1.3749821663789474 11.4426547158405896 44 30 27
-0.0057993877785278 -4.9249179934345122 18.8068695827778534 153 139 154
-1.8887364451635043 -5.0649205757485349 20.4569112143347134 189 180 211
-1.3597349798724219 0.4398645282239456 11.7127048549674289 154 116 115
-1.6278145572362357 0.2266100224651267 13.0262784968140544 179 136 127
-0.0885095373986499 -6.4451357750317637 25.1335988381048878 170 161 192
-0.6921677802763266 -2.6881049736068956 12.2961156950875719 46 35 33
-1.2799275512043824 -1.2082059945077264 11.7094311640490627 29 23 25
-0.2973445649118718 -1.2812520565967782 11.5409288045325980 39 43 54
-1.0897945967847131 0.4913514034744734 11.0056455822495867 131 101 99
0.5444028628625394 -3.7784133411264875 17.2101831813820851 56 40 25
-1.7157723576206796 -1.1499177487668151 12.0045523909081471 132 92 93
-1.0397548286352232 -0.6728842939661087 11.0115699227358430 153 104 107
-1.4276179826819702 -1.2122803222826699 11.5910032751741809 97 73 69
-0.9155311981703382 -0.7531783953888446 10.8006693280892545 121 83 82
-0.6941287932781812 0.4077233524583762 11.7062431111226157 79 61 61
-0.0713479888512616 -1.3538619529374554 11.4967570560133190 34 23 19
-1.1492233348719221 -1.2175677869046775 11.6090856589425364 62 41 40
-1.4739811427408729 -1.1776518199594628 11.6064081482690806 111 87 85
-0.3221669413133799 -1.2667024983552266 11.5307735575993853 129 132 149
-0.8652124363315987 -4.0544598272571735 15.7909782738224127 158 140 138
-0.0700458001143285 -2.4832608307238577 12.3185016369793061 69 53 40
-0.1441778789248669 -2.0161541243121106 11.8162150238613464 89 66 48
0.0015512901283438 -2.4445807234016588 12.3609609243988423 119 100 86
-0.9797699335585340 0.3788600099259659 10.7841735755511809 130 101 103
-1.8275881592419700 -1.4663499694769382 12.3357030852592882 83 54 50
-0.9596174974105138 0.6723827774528091 11.8702802425866594 125 96 92
-0.7717407091657785 -0.7442950597524490 8.0851760919641240 73 48 51
-0.2855010969309394 -0.5569560418216231 11.0652098665190568 97 64 47
-1.6262201901618609 0.0750306473691314 12.6201169992218212 178 132 134
-1.4128424056920905 -0.9370749015808975 11.7391833874805140 134 98 100
-0.7042934280386437 -0.4914190678524705 10.8265916178985435 126 85 81
0.1977310331446112 -1.1871491990129834 11.7531119702870477 83 56 37
-1.1085592679945067 0.7467377266707058 12.3462403027175611 165 131 130
-1.5473230148588517 -1.2895331130224208 11.6906432183629718 141 111 113
-0.1361701188388323 -1.1096286488128091 11.3500349088380030 83 55 44
-0.0726861166708786 -0.9046519744741631 11.3463754090864928 94 58 44
-1.2666480617243039 -1.1467175940701089 11.6151117758555742 38 34 35
-0.8996076115380643 -1.0289499454876787 11.2210350002948775 146 96 97
-1.1834561995971440 0.8843125987751241 12.8825083630773403 171 133 124
0.3908229564278711 -2.1056186537429160 12.3112522872839953 49 36 20
-0.9607682427552268 0.8667871732143224 12.1147387096323715 150 116 115
-1.1608293235575760 -0.0225348835024558 11.0125306008579837 154 115 110
-1.2600529778232705 -0.1286835157172357 11.0614961418266518 128 84 83
-1.4549694322425919 -0.9791545206738317 11.6300270560799177 118 87 92
-0.5924567597785401 -0.0580280744302352 10.8169927000303456 115 82 77
-0.8378514052293302 -0.4264546221074256 10.7669957709489719 104 59 62
-1.4247661085055925 0.3822055338050510 11.6290534517801500 150 99 95
-1.8498204037990764 -1.5994317987294813 12.3419058520786322 52 38 35
-0.1069372674396096 -2.2322502178858610 11.9810095848743909 56 46 36
-0.4305169285040087 -0.5464090986993314 10.9631419015825795 77 50 33
-1.8132660541167922 -1.5474618354629668 12.3165953746933585 75 50 45
-1.6667534569817606 0.1362864885975002 13.2549813026643335 159 105 103
-1.6560762618130855 0.0629085987402882 13.0743762451214689 183 133 132
-1.2615638974596768 0.6374642306886181 13.1965275084050226 47 30 23
-1.2317970365174378 0.7503355443113311 13.1054782608540297 32 21 15
-1.6577768520335354 -1.6975193263190165 11.9445060952556368 36 25 23
0.2489239533541111 0.5213504548667551 11.8795838849462463 93 74 44
-1.0127565493769413 -0.7331725090901778 10.9930738000263233 176 120 119
-0.7205046973242050 -0.6424266059187079 10.9203592310093462 106 77 69
-0.9418223148737641 -0.4901378468091058 10.9020703202537099 79 42 36
0.1796066974949388 -1.5601269927774586 12.3178095851957501 65 47 35
-1.9037427449670141 -1.2202114137507525 12.3684388364382354 66 48 46
-1.1262825175225908 -1.2050134643236967 11.9031838481436125 46 36 35
-1.1437458055138428 -1.0620659616698283 11.3725880513189388 109 71 68
-1.3448467675401403 -1.0129359739363708 11.7751752232704590 91 64 71
-1.1389531397698573 -1.6781127281745607 11.4111818078309728 132 94 85
-1.8713062944189278 -1.5845634888855447 12.4153826465448862 62 47 44
5.1398714668563841 -1.7968373283746952 21.3457914107293583 102 65 47
-1.2892419202160752 0.1894867065929798 11.2458967049557774 178 133 127
-1.3014496788606933 0.2156475027822817 11.2485089530539675 154 103 99
-0.6836948825481231 -0.6953394094969654 10.9262474298785293 96 68 56
-0.4958387183383289 -2.2187892734425074 11.5399026408753596 40 33 25
-1.5134056646100080 0.1445265078275824 12.6990911207278874 129 78 74
0.0481286879407500 -2.3297621171392984 12.2403572433594707 63 50 34
-1.7206616007048996 -1.5534144486567063 11.9558547988384820 68 43 39
-1.4990114585090710 0.0715900657933265 11.6064016873025047 181 135 135
-1.7563640327027270 -1.4620761562620148 12.0110958095962292 106 67 62
-1.3527535632647127 0.2113058640147381 11.3316939374025161 185 141 138
-1.4134170209106987 0.3788783802546734 11.6687531818814936 152 111 109
-1.0665669766017976 -0.5520279685629564 11.0635403584461915 138 85 81
-1.1859366434769423 0.4038739058621862 11.2457072247634127 136 102 101
-1.7236583421936247 -0.2447936138194297 12.8207100053261751 157 110 104
-1.3460495430831698 0.5676461997427275 12.1963392990891766 145 104 102
-0.8527069690791229 0.8132851508858278 11.9844713257340487 129 95 94
-1.6712165141716151 -0.1126571566194075 12.7778528856268121 189 143 143
-1.5747730501410406 0.1100956515204996 12.3011384174825089 172 128 119
-0.8788809958645111 0.6926823182742454 11.6194704756891287 128 97 95
-0.6668995728637512 0.7294873421140587 11.7607883979109911 121 93 90
-1.7224308772519976 -1.6652769438654100 12.1323267474135985 99 68 65
-0.6465878280148895 -0.7550309445351817 10.9319246242405494 41 16 9
-1.6879596625054274 -0.1878456534789353 13.3479838351529541 192 137 132
-0.9944776624516303 -0.2007239922809416 10.9328500520005338 84 36 36
-1.7736902882434427 -1.3548907080093471 12.1954768798833708 163 115 111
-1.6039740148714965 -1.2639180356602131 11.6656285013994410 138 87 83
-1.2103974418718420 -1.6779561450943079 11.4547238285386577 114 76 73
-0.8892467939276081 -2.7704866986011383 12.4246914645839670 136 110 93
-1.4811567784723429 -1.4599058687617976 11.5748035199853447 78 58 57
-1.0151996260658034 -0.3798854415252191 10.9509139640516686 114 77 71
-1.8461433319170928 -1.3325427054799990 12.3767823172534204 96 75 70
-0.2995925400732727 -1.3465047277699886 11.2389063659269048 34 25 20
-1.2363557290506648 -1.7361089498128279 11.5323036099922724 85 60 56
-1.2726902304711429 -1.6739965455451524 11.4596547584584290 126 88 85
-1.5750875430448188 -1.0902467437460310 11.7662194484419924 116 65 61
-0.7966522623185989 -0.4997120055818444 10.7952551398392735 96 55 49
-1.9953610860891298 -0.7391693938570979 13.2171601246288262 53 42 36
-1.2517064118566650 -0.0580406455297002 11.0736839405038943 181 133 129
-0.6489189486445995 -0.4630436319839876 10.7023504320305634 102 65 59
-1.7198565237984866 -1.3674489532080034 11.8733309782996255 126 73 67
-1.5747837269566576 -0.8917318392111517 11.8584015010124748 130 82 80
-1.2463351770962425 -0.0695401733797045 10.9336739446492288 129 91 88
-1.1150638018759980 0.3712341580797759 11.0086046739372545 145 110 108
-1.4298761992888609 0.5269207698164832 12.1755216895267324 154 109 106
-1.4929738190129969 -1.1445435755858178 11.7884106933260693 119 89 87
-1.7657934634552079 -0.3738021933698310 13.0191621922853873 84 43 37
-1.6360029466258927 -0.1842853029682328 13.1375019054065856 101 47 45
-1.5370216808429213 -0.0983701762664919 11.6679030840691897 172 126 128
-0.9946617956415373 -0.8099982028892403 11.1051905317721520 153 95 94
-1.6038658076538004 0.1376918533801605 12.8864241995898432 182 123 127
-1.6700304563750206 -1.2840326880386046 11.7463696555922006 142 91 90
-1.7975761344039536 -0.2834499860901588 12.9097799289279784 173 120 116
-1.6982029185356113 -0.2076539103045129 13.1200650681798265 183 129 127
-0.9776245038728465 -0.5588016465386423 11.2021953141925472 126 72 72
-1.8045314582004626 -0.3792462164927741 13.1082233794943548 118 80 71
-0.9289245622397131 -0.2126020193417451 10.8258092532862413 172 107 115
-0.9983621487853220 0.2642053956405729 10.7690023281657705 147 117 119
-1.6391446211870202 0.0835352329499707 12.7662347106820171 192 143 139
-1.4386521920737803 0.4040488681284580 11.7499524876947827 156 116 116
-1.5947197010986958 0.1010817171083594 12.3299641130867847 168 124 121
-1.2095718743373065 0.6823776038783721 12.3562687685549744 176 135 133
-1.4734051845727139 0.3568207067617785 11.8041659168540960 148 108 109
-1.7289880312026344 0.0672171142894402 12.8446291870276941 197 146 143
-1.1893107760887145 -0.0067493097495582 11.0154978908512931 158 117 113
-0.9677950786944370 -0.0236368311597060 10.7712560783710440 132 97 91
-1.4438406368335750 0.2263612403170971 12.7947729940806241 105 50 43
-0.9552649549360973 -2.5748183428519051 11.8660949394600390 36 26 24
-1.1198030669097556 -2.5603209456915090 11.9672405910578572 39 30 25
-0.7522417247976380 -0.0857333860675764 10.7615024483971879 80 49 46
-1.3983925038853655 -1.0613484272997349 11.7082106788414499 152 154 167
-0.5981537463602062 -0.8149395951477506 10.8282544926457742 118 84 59
-0.9486211669546861 -0.9584572737037942 10.9791735535706465 154 94 94
-1.7285427856193361 -1.6688866015321770 12.1118052424368638 99 68 65
-0.3853773259077714 -0.6172447335396796 10.9756363199707110 112 77 57
-0.0935727001656420 -1.8469941560536003 11.7530735100774724 147 121 98
-1.3342212991844082 0.3440080797253426 13.0836582632147422 170 121 114
-0.5537953357328970 -1.2643558676696993 11.4229002139670435 55 35 28
-0.8587697489818477 -0.8974727911037029 10.8993034972916192 166 115 112
-1.0705103044682140 0.8055027985449685 12.1511463952365606 177 141 141
-0.9107992493374333 -1.2285561444986761 11.3775936205253920 163 115 113
-1.6327521984898852 -1.1320778911759832 12.3356275530386519 173 98 92
-0.1746301885278941 -1.4233920465561170 11.6031073743669104 46 35 31
-0.8857828544127148 -0.9996785016570046 11.2588594747888884 166 111 108
-1.8310623755146740 -0.8049438566192147 13.2326190685654446 32 22 20
-0.2623000369825406 -0.4448887087535432 11.3502212351135707 85 54 49
-1.1501582310645162 -1.7378465690696354 11.6457977749348203 116 79 73
-0.6071945812996130 -1.2125726524037745 11.3913224913311470 112 75 57
-1.6041165410072467 0.0571028205514443 12.3679884125494119 154 109 104
-1.5234593024397387 -0.2269371683093503 13.2594323574465580 165 110 107
-1.4306707603004603 0.4440418466547234 12.3296759335748831 164 116 112
-0.2517853271592405 -2.2644982967612930 12.0623256220567185 44 36 25
-1.7749613564656073 -1.0087050574086636 12.0260109916318605 165 116 112
-1.7865954144386964 -0.0200200724716351 13.2061408358649519 190 131 127
-1.7729141939226327 -1.0111122062864057 12.0291580470501067 170 119 116
-0.0289388964935346 -1.1696108662992788 11.4980158666516470 109 86 54
-1.8569929361111577 -0.4126928735406335 13.2338181364992185 48 29 23
-0.5936082410350557 -0.6835620837331778 10.8944475816091977 115 80 58
-1.7582322522843621 -0.3719446029926278 13.4540715632009853 150 102 98
0.2090871356386693 -1.1571680475265065 11.7061102938853629 112 92 57
-1.1950853750333725 -0.1751165960580809 10.9014527517189457 120 85 81
-0.8935992799519240 -0.5786387233905178 11.3419177133404272 134 83 79
-1.4183718371533947 0.4561450983053184 12.3356832162085492 157 107 100
-1.5772047366512267 -0.1900972879915944 13.2492190395637977 121 66 63
-1.1710571780780923 1.0555509329880512 12.8873225629697714 112 81 61
-0.8604613825770301 0.9049389939180867 11.9621393433243473 163 125 124
-1.7503608388988423 -1.2520200660556764 11.8848563412868984 110 69 67
-1.7497499264512661 -1.2540729347938424 11.8840778437898198 98 49 44
0.3638616264675292 -2.0031779628432340 12.4836235987887694 135 100 81
-0.7190448829560073 -0.5612018499600201 10.6926836134258121 73 44 26
-0.9580570429615076 -0.4897192717769498 10.8702890743118470 89 51 42
-0.7207986498605996 -0.3186445086234287 10.8209810501726587 104 45 49
-1.6924424928410045 -0.0093845110114506 13.1432166000172934 138 83 80
0.0490807654326738 -1.3215226983503578 11.5905437852994506 54 38 23
0.1740125186139496 -0.8890331077019767 11.5391289823745158 123 87 61
-1.7298225570947512 -0.3121549125592756 12.5689824640147076 67 38 34
-1.6554595214264047 -0.1329208331021493 12.9471321863056925 175 117 115
-2.1049854370839411 -1.1040726672394541 13.2674291666024118 43 28 23
-1.7822752257764327 -0.1315620738867769 13.2745200245698847 153 82 76
-1.2416826280536672 -1.1621897376180481 11.6276848622720372 46 38 35
-1.5549051919494141 0.3154384361079068 12.2117015978111603 175 126 119
-1.1821959009077361 -0.2988211970928330 10.9720450954766786 96 58 49
-1.5142709825671397 0.3255008965746901 12.3448467329842995 151 102 95
-0.4665791857504030 -2.3032514753261943 11.7016290827967193 58 46 32
-1.8598188648808700 -1.5529447997805124 12.4587264265840574 72 52 51
-1.9739656357659792 -1.5429141758734077 12.5853130442644812 49 36 30
-0.4779065961462177 -0.8012934998465723 11.0073861626969496 127 91 67
-1.8532231518851652 -0.3589986280804345 13.2761048295303397 150 105 99
-1.9674321956831811 -0.7744117140225572 13.2972225055411091 39 30 25
-1.7801214009321173 -0.2954866681476714 13.3448740724195076 109 54 47
-0.9668934134995303 -1.0227444912767285 11.3803279127233914 152 99 93
-1.8209237076761917 -0.5525599973032979 12.9467590892697579 62 47 44
-1.4429686259172514 0.1325957659882600 11.4820240311361310 185 141 140
-1.7125978813937051 -0.0508117515909577 12.2817190798055833 107 66 62
-1.6961154864648078 -0.0222135264057543 12.2164427328271206 163 118 113
-1.6337448107299481 -0.0900328879551617 13.0800591478788881 198 152 152
-1.6013542655862856 0.0191092802143493 12.8686736117836862 137 71 72
-1.3950845504011773 0.4397658009196120 12.5119095154268116 192 139 135
-1.6645565912149181 -1.9408125857924647 12.2126244911058333 56 33 27
-1.1167835334402509 0.8897377385149272 13.1462475265227123 49 29 20
-1.7990874112309039 -1.0067983625068289 11.9822995398537557 165 116 112
-0.4852443949520384 -1.2967007863008873 11.5126227354852340 54 34 23
-0.8394012214458553 -0.6401703678973003 11.0029949267917857 133 79 77
-0.3191242780511047 -0.6395327534870332 11.0226642889522299 123 89 62
-1.6909568533413610 -0.1299859691930030 12.7265317641655962 186 110 110
-1.1417940760387986 -2.7357397434695896 12.3274250017718305 157 133 109
-1.6137990583662245 -1.5192503550018006 11.8571265815965052 45 27 23
-1.4129624347793492 0.1590560068791809 13.3272353059491149 203 143 142
-1.5279943670593827 0.3925164266522427 13.0719973667671177 39 25 22
-0.0342849186162578 0.3248642290870961 11.1835869666772041 90 66 56
-1.3796339395030348 -2.0214017778835607 11.7803207878580185 30 22 19
-1.7754593879274738 -1.6956591832228161 12.0471228425226489 122 83 78
-1.2535554987254516 0.5762343096115111 11.7405214255235659 111 64 54
-1.9537235668979283 -1.7052160305359718 12.5606823971989847 23 12 6
-2.0303365908686870 -1.4243980670837368 13.1878317450950959 58 44 35
-2.0816214944652742 -1.1853740406875493 13.4679102592948610 48 32 19
-1.8388181799366743 -0.2296602297396545 13.2829867676216882 150 81 76
-1.9775238770853403 -1.6131148031627471 13.0667893681688110 50 40 30
-1.6969725871955432 -0.1353817101395680 12.5366684757106768 120 75 70
-1.2763408156155378 0.4533847495110169 13.4589167961774248 53 42 36
-2.0732367685667121 -1.0194116631430334 13.5860103010578754 60 43 35
-1.7745702530514440 -1.5289145311542638 12.2696860083530179 83 39 28
-2.0509523007102608 -1.0495442160477535 13.5233138257208534 43 28 21
-1.8903626448636195 -1.7039986303799166 12.5090714130528387 33 19 16
-1.0028190594405300 -0.7466623676953030 11.1773544138644496 147 79 80
-1.6036083447068574 0.0207317191757570 12.8709222657034754 137 71 72
-1.0770611699715171 -0.2329846307905363 10.9581511236739289 93 52 48
-1.5420256170396478 0.1642168526653610 12.7470657786861903 190 135 132
-0.3118467256443199 -0.2114272977819139 10.8868647141221988 128 106 65
-1.3165327187298557 -1.9088823038161644 14.4444214494468479 181 160 133
-0.6317541918566669 -0.7572065700024683 10.9393802174540564 83 44 29
-1.7534132013739323 -1.0149831932699687 12.0498048387013892 170 119 116
-0.6026068709951682 -0.2712486435892001 10.7076686258413343 115 77 56
-1.7480117027345221 -0.3274564743106555 12.9085668123003625 166 105 104
-0.9880845447510382 -0.6779949871731850 11.1059320607042462 161 91 91
-1.0979620366893914 -0.4304412828981230 11.1035376159768493 139 80 66
-0.2676305841589515 -0.3740595099318473 10.9502039666386004 93 65 43
-1.7914862909791469 -0.2300513583772057 13.1846565698385110 212 139 132
-1.2582552537170650 -1.1434073705451244 11.5996276804680782 47 37 35
-1.7240030673316546 -0.8874685260924700 13.4312988690037223 29 21 18
-0.8533194493143293 -1.8648065306428536 11.4109002026469035 98 73 68
-0.1142392627538543 -2.5592784774558952 12.7075165674277724 108 86 65
-0.6660546439630312 0.2632667913924221 10.5006906768897164 98 72 71
0.1506377434446833 -2.2264410348535923 13.5102479389716024 82 69 60
-0.6009505977978271 -1.6394876211468767 11.2858894384365023 112 87 83
-1.5746243838074532 -1.3483416405006223 11.5192460928126899 128 93 91
0.6722140489960027 -0.5048844882992687 12.9271415359550730 93 62 34
0.9384518418070685 -0.6428033035672848 12.5774746913520925 155 110 87
-0.4068440261492131 -1.3427140620913389 11.2100511526789202 59 36 28
-0.8982633564719125 0.3465308551055892 10.7298065719209159 123 102 101
0.7161312127427759 -0.3658181040129090 13.0472873633599473 126 83 66
0.0143070327741923 -1.3269653352362500 11.5614375957052697 77 56 39
0.4749218274685085 0.1978814350157289 12.4886239260445677 97 72 42
-0.7169985198212909 0.0084645926093993 10.8213603194547812 110 77 72
-1.1543980137379937 0.3501289813690806 11.2242063812775239 148 110 109
0.6609027142997077 -1.3151733527173379 12.2836347311346916 42 37 33
-1.3046592476774683 -1.9844851405312480 11.5054851435056040 41 31 30
0.8603301360153680 -1.7519068383061005 12.8080226621939062 54 44 35
0.6459437125103475 -0.7292911868561652 12.7049353959218703 39 26 17
-0.3761764814955844 -1.4336535998679074 11.3981889401446246 46 29 22
-0.2786887845842171 -1.4715420274524917 11.2322126819275923 80 70 69
