ply
format ascii 1.0
element vertex 697
property double x
property double y
property double z
property uchar red
property uchar green
property uchar blue
end_header
0.0670128487958413 -0.2130697209619583 1.2619985004232608 152 154 167
0.1194455062774368 0.0298320594183207 1.1457946223465860 141 135 123
-0.0638473769507295 -0.2293014422656202 1.1951149114169133 254 255 255
-0.1660361888501924 -0.0493830063533808 0.8596447408673232 166 166 166
-0.2495035540870097 0.0360456355543705 0.7741528009614881 150 147 138
0.1988013265990693 0.1222476048632462 0.6743366994099477 103 103 111
-0.3288767987536909 -0.2430648042627016 1.0282486766857537 152 153 171
-0.4291624862379453 -0.2802625027541295 1.1831948283354952 239 255 254
0.0277376981965675 0.1497612730795961 1.0314453579969840 96 100 99
0.0735927446507171 0.0248152106595142 1.0867353449413166 144 137 131
-0.1697594863297093 0.1513411506502339 0.8203004118830580 93 101 103
0.1330328221570294 -0.0086294618061160 1.1507359643719390 146 134 118
0.0222905913064017 0.0809743357561033 1.0444896748727108 114 127 144
0.4062445637718166 0.1103254605649983 1.1142436055182035 104 78 65
-0.1602174685087973 0.1139157594794584 0.8025541276845424 148 143 147
-0.1587644111488485 -0.0074257569972449 0.8299847922649568 144 154 164
0.1932097985524149 0.1764719320484240 1.1536917306312116 124 124 132
0.1197090068900572 0.0938801343117889 1.1028536203249222 122 129 139
-0.2066412991269751 0.1489458818403213 0.7710382053642608 142 141 137
-0.0692420836819930 0.0801434376514810 1.0457726112292771 61 71 96
0.0396210942099997 0.1971322885866191 1.0404880460473265 85 107 128
-0.2736440570603116 0.1090056045154880 0.7415826932392631 147 146 141
-0.2867113237924864 -0.0570979976225457 0.7743781861290906 175 186 190
-0.1122501150643543 0.0782479850931617 1.0045670325213008 129 136 144
0.0143438696029949 -0.1695876075738710 1.2052148514700829 91 111 146
0.1215116634384437 0.2137399543436098 1.1065652854825325 96 96 96
-0.0661767620694057 -0.1814778903205968 1.1872260981537681 81 98 128
0.3803383676717873 0.1162135934323424 1.1015537660171828 141 138 133
0.1691647034759400 0.1795358273711110 1.1398472528519361 121 120 128
-0.1001613682767739 -0.0221249538787690 1.0363444033300422 132 129 120
-0.2708088173266766 -0.1999612963727381 1.0824373914262979 166 174 187
-0.0629939445882552 -0.1654084044283612 1.1800353415705980 63 80 110
-0.2215157133580432 0.0750312801286415 0.9490727241160744 84 74 82
-0.0116790009515035 -0.1539955461226421 1.1708696219803936 91 108 151
0.5725863725866913 0.1945193071104915 1.1509942989698689 20 12 87
-0.1594738615721793 0.1219392940638950 0.8004177925124408 146 142 141
-0.1895206294361345 0.1332800113072802 0.8614752018781637 101 102 106
0.2080302646955524 -0.1223995881258423 1.3218539754040239 59 74 95
0.4389708026274973 0.2237497280085243 1.1142735776841457 34 40 36
0.0381408013585259 0.0340068665415294 1.0658202047004788 136 133 124
-0.2871175971206681 0.1513652517526206 0.7270511935046267 201 194 186
-0.0347501983390254 0.0281222161283516 1.0607536551065302 123 116 108
0.2923903609126486 0.0258821524885331 1.2352599805450142 115 116 111
0.1935376388360707 0.1867086083889757 1.1506589973341790 108 113 116
-0.2694112755716063 0.1531591940666751 0.7319257625675489 157 152 149
-0.2068294289809833 -0.1327407460867223 0.8428488150466416 96 98 121
0.5791757788732697 0.0487897792723314 1.1721094168394608 203 231 255
0.4971386260409549 0.1984025555375064 1.1450824342251207 114 116 111
-0.1870875856127422 -0.1234406951672155 0.9116841679242178 118 150 189
-0.0587574751595505 -0.0120334295344362 1.0544822819252260 132 127 108
-0.2823395400510896 0.1558652486258724 0.7267654008681955 69 82 101
-0.2853987202211207 0.1597491427013762 0.7237411605046902 151 138 121
0.1146561991936167 0.1147386051956565 1.1253766402235159 101 92 83
-0.1905203284261906 0.0070290854704284 0.8911087835687010 123 123 133
-0.2033292494801964 0.0134974564323178 0.9835912748468663 119 134 155
-0.1142211048006110 0.0228339540018613 1.0204140982802725 82 97 120
0.1255066781509745 0.1191278393551313 1.1275990000830134 109 106 99
-0.1742242210583326 0.0746373316626655 0.8537590847852592 116 115 110
-0.0860013294329307 0.1664065923135189 1.0048758970965348 102 102 112
-0.2668023424179593 0.1692749558083935 0.7330535379316739 171 166 160
0.5046597593138348 0.0464360051016529 1.1802351488386837 168 175 168
-0.1838291653642100 -0.1216889099596949 1.0695475784175557 159 180 199
0.4373899687879619 0.0411156743592634 1.1563983208928756 52 67 96
-0.1391385954723599 0.2120540708105929 0.9324584888008535 61 68 84
-0.1866926514491131 -0.1118072916838863 0.9055425985301532 122 131 128
-0.2685792551254003 -0.0024237788624471 0.7700922512216772 87 93 107
0.1894702362114033 0.1298479057493035 1.1599211345931728 121 123 122
-0.1331823471056633 0.2104412085606468 0.9263844276561937 48 51 66
-0.1959447767355705 0.1336454571360852 0.7777838975808770 139 137 138
0.4949366241130143 0.2070168886690511 1.1427078848272134 87 76 74
0.1648346469214645 -0.0651639852627419 1.2364420448091116 81 98 128
-0.1150741638412430 -0.0942482654247144 1.0858816530638740 78 101 132
0.0187610620530633 0.0414812222213014 1.0559481971488049 160 162 161
-0.1604306250656966 0.1382628589830719 0.7981850283991069 134 133 139
-0.1689287599957728 0.1423942210603341 0.8215349990126732 102 103 107
-0.0755102375692462 -0.0837301676145750 1.0636539552409059 133 137 136
0.1466473308323292 -0.0516003021590924 1.1767508580519488 157 151 137
-0.0435853196183001 -0.0698293754406862 1.0814567562566704 148 151 144
-0.2776931160307479 0.1325841354726088 0.7345760351371391 158 156 141
0.1187842208154873 0.0613669252342764 1.1389848276917813 129 115 102
0.3004405635131705 0.0825543007275925 1.2337667517321400 108 111 118
-0.1200520478302567 -0.0643620984610686 1.0390642412249083 76 104 151
0.0254907581651447 0.2026318749226118 1.0220418402935822 58 66 68
-0.2833420106159301 0.1390327774624890 0.7275127575830941 166 157 148
0.0384328085068044 0.0578859674433048 1.0602612496455888 126 129 120
0.4179622847213957 0.0089085130695223 1.1430797530154111 92 90 75
-0.1748828075116916 0.0249508499581343 0.8140571992407931 109 107 110
0.3941048568533896 0.0887357154329373 1.1100666287230467 143 146 127
0.1264372384693129 -0.0091495188120564 1.1251305536102072 98 86 70
-0.2031266275238672 -0.0513137477179773 0.8129136622124440 126 128 125
0.0995689903991717 0.2084333930583140 1.0575511005794203 63 68 61
-0.2753797459476461 0.0185582058661342 0.7571085574200948 138 151 157
-0.1770904629691726 0.1828623622638054 0.8355738126043103 47 49 62
-0.1914233817993480 0.1885638088660170 0.8612386224055033 50 54 65
0.0134585161324880 0.0656010121988972 1.0461088216910550 159 160 165
0.3734523214385798 0.0969388939170533 1.1160249894747871 136 144 147
-0.1948602751193104 0.1813470616734817 0.8631148404774471 86 100 111
-0.4099931422502283 0.1763250115774933 0.7749010124255382 251 248 255
0.1252034789369762 0.2251542554795937 1.0658848734104465 110 119 136
0.1966302177830307 0.2450694520619219 1.1382373256545097 89 98 107
0.3073470811170313 0.0309115209367824 1.2378301855085188 59 46 63
-0.0566816992408949 0.2221847891488995 1.0070259733296485 60 69 78
0.4518226756323312 0.2436469994187393 1.1050034983020487 67 70 63
0.0082455002761107 -0.0025890154200578 1.0666581199560667 117 116 111
0.1558021550322400 0.2437725504004579 1.1060603463905920 53 59 71
-0.4282512094661882 0.1899694717890744 0.7507176316991598 191 192 187
-0.2197362609528946 -0.0009607687544602 0.9671175786833565 83 82 80
-0.0723710248345374 0.0197792119686078 1.0545837000769358 94 107 139
0.1978943221261654 0.0517865189125348 1.1972935115586705 106 116 141
-0.1395465953936018 0.0193685426704988 1.0090630353969190 82 94 108
-0.1924668541508159 0.0041983249061036 0.8110212707921149 155 118 136
0.5631775740955480 0.2849892399734905 1.1786188937956084 38 45 53
-0.2200370504373388 0.0151628516773962 0.9636578269425173 89 78 86
0.1970818997258780 0.0777308621101019 1.1802975692377833 91 107 122
-0.1696849597017056 0.0301206461156422 0.8471739817518139 135 141 141
-0.0230820808647493 -0.2656196348542161 1.2574583385436096 255 255 255
-0.1718372653545192 0.1875634118924620 0.8155984750072042 79 87 100
0.4473596484575177 -0.0426576004816083 1.1801177456640597 43 76 127
0.1047439827901128 0.0595736934538497 1.0968744179029923 126 119 111
0.2658757998661225 0.2479975958849944 1.1255579786861589 19 33 42
-0.2046698783255863 0.0398122585479612 0.9785083320684943 41 45 54
-0.1527685450975980 -0.1118615604336568 1.0541155000130353 54 65 93
-0.2086999364079771 0.0480681706961540 0.9214544766790201 73 80 99
0.4447985502428635 0.2432262101587165 1.1025299686091761 72 70 81
-0.2175029294973443 -0.1677565402494060 0.8796375451851542 107 130 161
-0.2134058028119264 0.0554314580479674 0.9581221341250945 112 121 116
0.0408903199061649 -0.0117948820889685 1.0703433437695984 135 140 134
-0.0903337721474261 0.2151572497496125 0.9489445173131652 75 89 115
-0.0394309945762260 0.0664663369671982 1.0478698825970738 104 106 103
-0.1980496161673197 -0.1437800491082563 0.8749880347105142 120 149 183
-0.1593023989708338 0.1164553415698502 0.9755919076547358 75 76 80
-0.2914401586928123 -0.0957872487186708 0.7750944308871496 181 186 189
0.1216302826524099 0.2025661344084259 1.0710058661085340 118 127 132
-0.1776333628189354 -0.1127375268955749 0.8611657030737598 116 138 175
-0.1568817378695786 -0.0719425922389372 1.0301149776158851 50 69 99
-0.0736844149490258 0.0735037700859368 1.0352134196152674 65 72 100
-0.2758698437695820 0.0542527946004230 0.7589370041919494 96 86 95
0.1214483090276768 0.1110903782091049 1.0926494083685929 126 126 124
0.4500342285493047 -0.0290432361187262 1.1717575678471874 55 96 142
0.0528279059595508 -0.0648124482692073 1.1037287947290406 98 112 139
0.1050699056505408 0.1232081314878949 1.0812160534071278 131 133 128
0.2119751590710865 0.2750242315509153 1.0964023787482111 23 33 45
0.2434101322565156 0.2460567377131688 1.1628482680111767 91 108 115
0.2147782985090747 -0.0352381114371098 1.2162142889858691 57 92 134
-0.1782228058786664 0.0920238767709179 0.9627722862317123 148 145 140
-0.1794872847710099 0.0799662157424068 0.8560855082031785 110 115 109
0.5178742799213317 -0.0023394945919605 1.1913491966866017 74 71 80
0.1260938088158167 0.0317190536120206 1.1473697533968146 125 122 113
-0.0939426199173028 -0.0180979107464349 1.0412123810660012 138 129 134
-0.0667712658223386 -0.0586151699926114 1.0664582912732843 119 142 160
-0.2701792700612754 0.0707652322385028 0.7535056401480971 85 84 90
0.3034507925477772 0.1717636826545815 1.2178364895745049 58 50 61
0.4304743564766580 0.0032497045783466 1.1518743891627932 156 148 129
0.3525224584988250 0.0020519763541590 1.1688655960724925 80 74 62
-0.1800718559535466 -0.0568036237447029 0.9002891762304499 99 95 86
0.1646408816238489 0.1629615083808671 1.1412218800615013 105 109 110
-0.0835636127904162 -0.0345794300875068 1.0407690887604988 149 148 146
0.2559695699672048 0.1732081852673469 1.1872699223116663 112 111 116
0.1035197137654362 -0.0059323133281549 1.1129761786308205 130 123 117
-0.2686197008812875 0.0855770318672941 0.7490086079541503 85 83 88
0.4063331643085130 0.0436029482268208 1.1289264732934525 165 162 155
0.2461918686130700 0.0381993924050343 1.2127921447786991 105 98 82
0.1144079679820812 0.1485605613840707 1.1161051668168951 89 81 79
0.0235184940446491 0.1948618888912938 1.0149591842548713 114 121 139
-0.2871891391234414 0.1490495179810524 0.7296404995174793 173 166 156
-0.1770228108140100 0.1659265942746393 0.8324850726085060 57 63 87
0.4115083186020995 -0.1590466667142666 1.2589458436628971 56 63 82
-0.1865733798527353 -0.0071598631380305 0.9870199462397774 146 147 142
0.0402362294310540 0.2106625130415250 1.0357978309978757 78 105 150
0.4424481380625731 0.1674251874415629 1.1277923691688165 114 132 144
0.0254961234312738 0.2090254778923816 1.0027232675374382 89 101 127
0.4925408007121768 0.1890641544881722 1.1438875812484703 82 70 70
0.1403137999963509 0.0535521680067739 1.1619331063428295 88 103 126
0.4336655340494063 0.0614893884341588 1.1481469806518778 46 66 93
0.2180262068879559 -0.1534396639592008 1.3624963224902540 218 247 255
0.2732953602919159 0.0689499067881686 1.2272902778735097 69 84 107
0.1769497712740216 0.0602716533936027 1.1710502501730760 105 88 96
0.2648730404000341 0.0556454846668359 1.2248832868598487 52 67 98
0.2814116276642040 0.0578509315991712 1.2341211359365842 50 63 97
-0.1090217273694468 -0.1733292568800063 1.1721589035122761 115 140 171
-0.0299570139403235 0.0416561979289492 1.0365406532910200 107 108 129
0.4338639036876982 0.0768722616081944 1.1440023087721942 46 67 94
-0.2711770656393059 0.1177501967704852 0.7436352156891071 111 106 103
-0.0826119332749832 0.0389449026587561 1.0361539758493319 134 135 137
0.2424953851482204 0.2117513327997108 1.1742954634418701 70 58 68
-0.1761847117189887 0.0153628030909949 0.8176464320625799 117 111 121
-0.1599687384523313 -0.0833207570246930 0.8473579592349602 95 124 154
0.1914580505332594 0.2118787901114767 1.1403040691467707 97 95 100
0.2296241763435482 0.2171377483785163 1.1656821222364371 119 120 114
0.0035267557067380 -0.0457739351693749 1.0675714246703607 78 99 128
0.4883950343978999 0.0965784600040394 1.1633993748729972 113 94 88
-0.2187532632681259 0.1926741728597327 0.9190783670520204 90 97 115
0.0568176007469564 0.2219590174485810 0.9995839245746956 62 65 82
-0.0304089136952120 0.0585575025651149 1.0326877369195808 101 109 128
-0.1410606132951783 0.2155437070782335 0.9173269600670148 73 81 102
0.4642331901798741 0.0999837866961200 1.1552947949294001 130 126 114
-0.1786462750788328 0.0356512940093542 0.8653164852068532 75 88 105
-0.1390715408389429 0.0655286098190602 1.0008820733766675 65 77 101
0.0262733970450849 0.1021123514730551 1.0365926672940202 148 148 140
-0.2404770784446247 -0.0454847532413297 0.7936988278192770 187 188 192
0.2668280465423677 0.2606756927327996 1.1131026132962198 75 86 104
-0.1624029985819176 0.0776342396315667 0.8089512400584635 129 119 120
-0.1967666686969473 -0.1121623067867621 0.9193489539286432 126 127 131
0.4258788241198100 0.0305454642951069 1.1403776875257761 164 159 153
0.5683077304362060 0.1456031130039342 1.1467847499542669 232 245 254
-0.1716293969855574 -0.0036163065767806 0.9922298406404644 148 144 143
0.0478141411189291 -0.1740246679918582 1.2455064806375746 92 100 119
-0.2236753742118313 0.0189111127284491 0.7909987835456220 92 103 121
-0.2815410788525367 0.1443482673947078 0.7307923155404439 103 92 88
0.4360447920152938 0.0960186126689179 1.1348198030456120 58 67 82
-0.1618568607997770 -0.0635865018067170 0.8396694093035897 174 174 172
0.0497889925765095 -0.0407065464258415 1.1008834192546768 138 171 204
-0.1602168602602324 0.0173191726695550 0.8238088271201696 142 149 159
0.3842624518867119 0.2225840499344814 1.0838194588776513 82 91 96
0.0290267432879495 -0.2032837278242344 1.2740076052202078 255 255 255
-0.1940775145214296 0.0552474346857533 0.9722386727948416 60 70 82
-0.1351447164626867 -0.1891313261118241 1.1675742802650468 74 90 123
-0.0608899055163171 -0.0812883187084855 1.0742683708554366 134 139 143
-0.1928893046710057 -0.2332978863841887 1.1737396968933638 255 255 255
0.0445842662243829 -0.0888757984146071 1.1218894766965468 131 136 139
0.4447774419321633 0.0025246683196336 1.1482132951430819 117 108 99
0.0193322512364878 0.0435803531293191 1.0411043026493796 134 134 136
-0.1814363734184505 0.0887031575619552 0.9609861719533390 105 102 97
-0.1212266173496694 -0.2396679729254027 1.1809807988256462 255 255 255
0.4143164420617289 0.0571931439033896 1.1304232344792620 129 106 100
0.4129862351205377 -0.1872796750044257 1.2669920044660492 198 230 245
0.4485271839792268 0.1295175057388267 1.1278749100009762 109 109 99
0.2362668523615481 0.0457662211759565 1.2060423565013652 128 119 120
0.2804701903775317 0.1298611164697990 1.2118519181411340 111 106 110
0.1833754366548371 0.1783694711801655 1.1485823471874914 109 102 110
-0.1754884463144328 0.0691474685812290 0.8581078871490183 107 107 115
-0.1783664986094414 0.0693446182502655 0.8599086869156608 115 119 122
-0.0193294761618517 -0.2687065806736806 1.2608456158758641 79 74 140
-0.2575847661695481 -0.2658073538323902 0.9201368618708017 147 133 218
0.1351826136732026 0.1150815270501995 1.1316639830163588 130 124 110
0.0618038643672024 -0.2266451798380620 1.2678810017668245 228 255 255
0.1188231907799296 0.0864929749682293 1.1326185723943749 78 78 78
0.1210521504326066 0.0361124173604005 1.1451496693604710 141 137 125
0.0760972165810035 -0.2208454048389955 1.2637376589446314 77 106 102
0.4725814976439077 0.1875891043274876 1.1350824395117221 106 91 88
-0.1645874881673148 0.0431112365207807 0.8399219886048669 115 124 129
0.2059400530948864 0.0479094803378582 1.1989057844978428 89 100 118
-0.1824772310260622 -0.0089866218345480 0.8096411548601261 148 148 146
-0.0531483104618456 -0.2267396922782244 1.1966219780732852 151 155 164
0.2002662331593098 -0.1930290981367904 1.3709428048013643 64 33 136
-0.1055077335501285 0.0115629472780813 1.0252443736212269 141 140 135
0.1155396785430994 0.0380314938328868 1.1424851457206704 113 103 94
0.0680630462879047 -0.2044391535008528 1.2577845148782398 148 155 161
-0.2240564187708270 0.1467122700096580 0.9271991798434450 58 62 73
0.0053314015553944 0.1016927873547788 1.0306130145342813 138 143 139
-0.2538453417081505 -0.2405182622549719 0.9108010467635235 119 143 169
0.2494180003990659 0.1943087080011738 1.1900510217185856 78 84 84
-0.0494136687672230 -0.2191871456245219 1.1985866867821491 95 107 121
-0.0003511295297325 0.1625539079544008 1.0082793597810962 105 103 108
0.2390093642522849 0.1935846302733604 1.1742388516725730 79 62 70
-0.2184604768454090 0.1481653155604516 0.9134913756379512 77 82 88
0.2069015349417200 0.0541969128454638 1.1961981216593478 104 129 151
-0.2219505078538314 -0.2420193517084276 1.1515690813509629 64 55 144
-0.0487394466876513 -0.2107567645347010 1.1961365638269137 177 180 187
0.3989574811110058 0.0661703036392743 1.1211030352580185 87 76 72
0.4077341694639984 0.0668953458796452 1.1215194091156291 150 138 116
-0.1679571117876958 0.0744009216988751 0.8281969884426165 118 126 113
-0.2248929984987673 0.1513138107111409 0.9267564964980504 31 58 65
0.0609466738744695 -0.2225824408855749 1.2571341837316914 95 95 147
-0.2075808964654226 0.0824129459544267 0.9087707907637689 86 87 82
0.4753951374544160 0.1958997493976759 1.1346893630138175 102 84 70
0.0203915514415025 0.1058546652386658 1.0303465625383976 135 134 140
0.0617644121065760 0.1762322416683361 1.0572730472378775 69 59 58
0.2065568787330714 0.0572647349022006 1.1958148216958937 111 131 156
0.1237004497866416 0.1194794111267140 1.0915078197216987 143 145 144
-0.0793979576468644 -0.2153250705843877 1.2564843489947117 184 179 176
0.0681980376165173 -0.2095426170817087 1.2721079843087773 140 146 162
0.1837946597351092 0.0553485447253387 1.1760142057158509 128 124 115
-0.3063953661240877 -0.2458922459656090 1.0519990895599260 148 133 190
0.2811854351224525 -0.1778832706587793 1.3756258514308553 45 51 67
0.0195513025209093 -0.1938837285269547 1.2302262570402791 95 94 102
-0.2278671115427550 0.1329809138974729 0.7689215323956712 15 32 75
0.4134843387215881 0.0720017133902867 1.1275688179358816 117 105 105
0.1006641234461278 -0.1816649312123811 1.3084231350840536 251 255 255
0.4664764174009884 0.1988807301024266 1.1269534919009441 84 83 81
0.0698981230191248 -0.1981325064598174 1.2581142949683846 136 150 153
0.4143352643006687 0.1938526185793763 1.1012195215661564 95 82 73
-0.3124270501111042 -0.2387834012468227 1.0363612444698433 115 102 128
-0.2001188348426157 0.0026291808527194 0.8054086076059674 165 167 166
0.2229829956186370 0.2021276797993275 1.1693632819982902 70 77 105
0.4254751796903924 0.1966064187678299 1.1061689836955522 98 99 94
-0.2717964072965697 -0.2312256715526218 1.0799831558063249 133 155 169
-0.1596263135462287 0.0524586660188521 0.8180872365083941 142 143 138
0.2047879431037218 -0.1597838383895327 1.3566629417832963 111 127 153
-0.2654759603793185 -0.2295294616360374 1.0920596698785550 121 121 145
0.0686981826572925 -0.1795635021814810 1.2596374237431209 105 104 122
-0.3228178517001424 -0.2327644796962260 1.0307220671106849 78 84 100
0.1101499083170076 0.1239939749283402 1.0901387357294516 126 125 120
0.1256364562595663 0.1247450416805861 1.0906530989155183 136 143 136
0.0708545247304987 -0.1726840287368705 1.2832285490593256 47 73 100
-0.0835322943127575 0.0321501742510269 1.0347163656124252 136 126 124
0.0586161329960628 -0.1705106896898564 1.2492548320650256 68 72 97
0.1277259895899659 0.0968281263892407 1.0960726931392517 61 69 82
0.1691383808642365 -0.1576578204495158 1.3328296502005414 99 126 147
-0.0700948839978409 0.1101210411634137 1.0177891763448879 117 116 111
0.4718689622771544 0.2044770263705620 1.1307069333003232 117 99 95
-0.1083583327110143 0.0308150161174281 1.0200275882126655 154 154 146
0.1177864628812403 0.0587561531907920 1.1390462775177688 148 138 128
0.4140729812585984 0.1992537771737976 1.1000792473872769 94 82 70
-0.1535858263207787 -0.2007158013736151 1.1710037218443334 108 126 164
-0.2236961222995567 0.0194707932531552 0.9552848124681467 80 78 92
0.1258081114540517 0.1277081199653780 1.0915621185515803 78 80 75
0.1374396878154200 -0.1546159168903618 1.3100387208931470 110 127 157
-0.1601494055026268 0.0839797614783497 0.8113784735134489 146 148 143
0.4109017202195248 0.1437399760589094 1.1101556503979717 102 85 77
0.3997888486714714 0.0810736890533739 1.1187111082280956 114 89 84
0.4888052753856100 0.1530731714288202 1.1517516575726889 104 88 72
-0.1578350143339280 0.0173038144420008 0.8278487406289897 124 132 145
0.1063023710667990 -0.1569771966739439 1.2920627449517210 113 132 164
-0.2970800180885577 -0.2207147612652409 1.1441334457831720 153 152 168
0.4915655160592111 0.0931822907473784 1.1670303539399318 116 101 96
-0.3081457151106348 -0.2161165361810380 1.0468533381431611 254 252 255
0.0043205782561063 -0.1661298459124303 1.1938494965001241 82 101 134
0.2555500161420066 0.0790377385811966 1.2087035541931128 136 136 128
0.2802293564234316 -0.1271141108684729 1.3603399236907996 54 59 88
-0.1637260682704195 0.1752817878504868 0.9605394188694139 60 65 69
-0.1526769145521106 0.0321198577131750 0.9971694120007448 128 121 128
0.0212126300037359 -0.1629284039413347 1.2039299578445453 77 97 124
0.4805195204546535 0.0932228196579993 1.1600480512541891 75 64 62
-0.1672031648904682 0.0577705693855768 0.8380085141710109 123 135 131
0.0184397276310501 -0.1576056590028910 1.1929873582828623 99 115 149
0.1088936697697242 0.1953228519035397 1.0680379459158020 107 112 116
0.1112127376844628 -0.1452134660493885 1.2818258362765620 78 98 122
0.2099290332862816 0.0778891756111869 1.1945083360578197 90 110 134
-0.3061719791883964 -0.2052420163236051 1.0196116751265236 109 120 150
0.4260698031900059 0.1495113531018929 1.1149463193595903 116 111 107
0.0260165035248951 0.1881602537686041 1.0210435025543769 107 111 120
0.0701281604891620 -0.1446487546592415 1.2485917856269393 143 138 142
0.4889053248989194 0.0968782700524673 1.1634038355941898 106 95 89
-0.1732071583144214 0.0206323419378867 0.8182416924392434 145 151 163
-0.1589513263509935 0.1518038888696036 0.7960675421608714 143 146 135
0.2803095363979007 -0.1160774004624778 1.3586634983069610 52 52 80
0.1735522167602366 -0.1274112983062845 1.3056529329105686 62 79 109
0.0216996558524952 -0.1486241309021685 1.1892563357447106 100 118 158
0.1223602878964703 -0.1346960829347881 1.2774883669136865 49 64 95
0.2555593106435037 0.2190840971091025 1.1760467594588302 86 96 98
0.4711775219531255 0.1282220586622061 1.1440438057773161 74 65 82
0.4914127626369321 0.0999355623681655 1.1638900779293873 103 82 77
-0.1809640430168927 0.0640356432874069 0.8635989786790413 115 111 108
0.1235341269097015 0.1369695551916701 1.0879750185390533 139 143 142
-0.0004351940852168 0.1893094366676937 1.0070196231451345 116 126 135
0.0335371175472876 0.0574989362949151 1.0571631907668426 123 123 121
-0.3423044685425943 -0.2003977606447812 1.0835977422711631 134 130 157
-0.0999473122522459 -0.1621778550723228 1.1665558101087794 82 102 135
0.0324184087421218 0.1287774727506038 1.0421956510132440 124 125 127
0.4703994715015235 -0.0701812150786137 1.2222623705362716 77 100 118
-0.2459143216410244 0.1490197283074618 0.7530245560077118 117 122 125
0.4663663207493835 -0.0708159584098114 1.2212554386966552 110 131 132
-0.2482370205228340 0.0853285125661306 0.7618146981317716 91 78 95
-0.3116476987091497 -0.1864263370680573 1.0296292841428352 86 104 128
-0.1883117175708213 0.0772398263269659 0.9693863702948419 125 124 120
0.1226897807654101 0.0734078928649171 1.1391522979367481 106 104 92
-0.0128266708192227 -0.1348140101765186 1.1492188344860494 98 132 169
-0.2677216464788111 -0.1720890240787637 0.8502156235813595 129 160 181
0.4366964620117178 -0.0642518236820837 1.1697965982483089 98 87 81
0.3959574656270829 -0.0740773782335321 1.1806132660210542 49 70 101
0.4442583475596051 -0.0657312165242663 1.1718107003748228 112 94 84
0.4347632232846463 -0.0640766116408751 1.1680725354040837 142 127 96
0.0739581593166714 -0.1264759862012084 1.2394779144186630 62 68 102
0.0322891943146857 -0.1232760376602136 1.1692183056327372 100 116 150
0.4526112535480760 -0.0622757718597664 1.1784831570792969 105 92 84
-0.1729504802096328 0.0796270731426198 0.9707852163136301 114 115 110
-0.2669192929910741 -0.1674579760189117 1.0760439520407590 127 143 158
0.1925395912190274 0.1510141599489497 1.1588766609696579 119 120 122
0.0269251561247469 -0.1269385188129710 1.1672818372788898 70 94 128
-0.0996666657363040 0.0492087115595368 1.0219171649399890 139 143 142
0.1794873486754867 0.0811737855177545 1.1674631220686036 101 85 85
-0.1519711049319873 0.1856295556851166 0.9635798859842880 68 68 76
0.1859309123979467 -0.1032323197206178 1.2863878899554471 58 73 106
0.1933157214211125 0.2160573973982644 1.1430324847997058 106 110 109
-0.0112535765127611 -0.1187060934426150 1.1333690980388109 127 148 191
0.3987724498686907 0.2082311194408089 1.0893549043271322 63 61 64
0.3962098351969094 -0.0566828668604965 1.1663762190962585 56 67 97
0.0289346465736848 -0.1210692517001710 1.1620103194851634 45 71 108
0.4641292533461333 0.1624434129079645 1.1361333370337716 121 113 102
0.0544890637790044 -0.1051601529061163 1.1036075872412943 107 107 119
0.4033913209845661 0.2088925264964432 1.0913823187982612 92 77 74
-0.1880533967245268 0.0803344557154929 0.9632856242427338 131 132 126
0.0913784509094108 0.1388113931667588 1.0644401597340805 117 126 131
-0.1588801052698658 0.0301611344108419 0.8129001770120502 115 127 139
0.3954578695799279 0.2091419467355780 1.0872545756244512 59 53 55
-0.1659583635005111 0.0679103062005486 0.8382426262073256 101 96 92
0.4107069668660051 0.2111125304980595 1.0954183543654810 91 81 72
-0.1792147676165725 0.0701645566732128 0.8531732635987893 110 99 95
0.2275963228563754 0.0898114818404525 1.1907918077907018 120 123 116
0.4326597601119338 -0.0531142465422053 1.1650936314185987 112 100 86
-0.1961509051371289 0.1722981222749185 0.8647374171777147 57 64 72
-0.1000892116774657 0.1300537313890234 1.0043635537755196 109 112 119
-0.2085006935431845 0.1562673135211789 0.7679158719936934 124 112 114
0.4140384645172386 0.2126955733413930 1.0967897287989243 84 75 68
0.4527632278001915 -0.0471404081949573 1.1785242460892773 73 66 58
0.2332553544544353 0.1643134867948231 1.1782280124333604 112 110 113
-0.2179637632578388 0.0441264749289200 0.9589824319106379 69 65 80
-0.1681716607629841 0.0706304575538000 0.8353123229885966 118 124 120
-0.1640451286981555 0.0391084773837284 0.8426340532441767 129 144 147
0.4917950672014127 0.2234165701128430 1.1373329941892283 91 87 75
-0.1587205312599119 0.1623247792226600 0.7959638778665852 94 94 106
-0.2166113986796542 0.0467655611138088 0.9575679920973535 64 58 72
-0.2063374535609453 -0.1273641883804401 0.8374977242137109 158 166 169
-0.2700804661882015 0.0265050096976693 0.7661706261452619 152 153 157
0.3350885503845519 0.0418809803284535 0.5399236130162196 1 37 51
0.1560152491939641 -0.0841073434553163 1.2441620582538406 82 100 140
-0.1658668897823848 0.0718742493473242 0.8295676674973085 76 79 86
-0.2755071587762200 0.0962151705029973 0.7467342432937265 150 146 137
0.4602975957727672 0.2210540643101452 1.1200593155742218 79 80 100
-0.1072897757749482 0.0601881283004578 1.0150149512721951 118 117 123
0.1594236511411654 -0.0823584581179796 1.2481209587012467 36 48 74
-0.2366869800511053 -0.1305225295986967 0.8174774434426262 139 142 147
-0.0806894816502287 0.1997593903744924 0.9999088382464860 83 90 100
-0.1875278871541578 0.0859679190688282 0.9597473292361999 124 124 116
0.4546720173850071 -0.0367336049807035 1.1757279570698191 133 134 138
-0.1443925751147893 0.1965512353740325 0.9719591275373756 44 61 71
-0.2064368234783645 -0.1237440498388583 0.8506857307526811 57 79 102
0.0756640437285429 -0.0831727344843314 1.1128263279054855 151 143 140
0.4744318924674396 -0.0324254787223873 1.1900994433936578 23 38 69
0.4795826151777804 0.2261618123745804 1.1302820392569379 83 63 65
0.4820570478958556 0.2265040558820402 1.1318134470591539 91 78 72
0.1679003630665338 0.1265295889865542 1.1493249812362847 105 104 109
0.1386113639020330 0.1626799266808278 1.1352246749580126 62 85 103
-0.2077207193811169 -0.1214302600399857 0.8325186824415856 162 168 168
-0.2346727125661976 -0.1242593975643644 0.8225942964194544 155 160 166
0.1840613472687959 0.1672798527265800 1.1503980395137652 109 107 110
-0.1942333104836621 -0.1183591173374987 0.9275206353383899 145 149 150
0.4669468884669333 -0.0285596172037236 1.1891837309039384 45 63 99
-0.1204279568648748 -0.1072318101496369 1.0953136307413949 58 74 110
0.1831287356332943 0.2270459870312574 1.1379697633021759 113 108 114
-0.2091396853528139 -0.1205874123684671 0.8381379758466274 88 87 105
-0.0998289603338531 0.0648115913753977 1.0187786689420852 144 151 143
0.4853847361847382 0.2279833690893969 1.1323534838424603 89 75 74
-0.2082295003995717 0.1321682926339205 0.9476751326772145 75 82 88
0.1047521090216032 0.1162000289375930 1.0751739242193776 124 117 109
0.1686225910704122 0.1686105346791065 1.1446621440744376 66 64 69
-0.2018778400944244 0.1844666032780310 0.8772729553510628 67 72 75
-0.1107425852392680 -0.1053504355928078 1.1004654744200291 105 117 155
0.4277428815188478 -0.0275382695020149 1.1583196683911674 153 148 145
0.0912214624598541 -0.0768830601685251 1.1579269340668543 134 154 187
-0.2261082750841739 -0.1174229120666231 0.8279851217477536 109 140 169
0.4122404015787710 -0.0324582008434670 1.1576398018586376 65 82 100
0.4218071671462702 -0.0299669451959454 1.1550348879842622 124 124 134
0.4265114419068798 0.1097068326243818 1.1230426802612863 123 105 81
-0.0635268132346402 0.1475173743601050 1.0288043264903883 72 102 130
0.4000063830098982 0.1709322636101679 1.0990108751981884 87 83 82
0.4095329952725007 0.1082448238863393 1.1159070468510282 132 109 78
0.0837155974890010 0.1139709207354468 1.0607874705927405 124 125 127
0.4391434134263216 -0.0243172237972287 1.1702874196033413 59 92 145
-0.2363327263120933 -0.1153734698375680 0.8219243827638466 149 159 171
-0.2371441260489556 -0.1169786145325474 0.8255189583215882 86 101 140
0.1908890978699455 0.1008107408990571 1.1694720238176870 130 125 122
-0.1867390081072665 -0.1091037636656330 0.9119973342135963 120 115 121
-0.0633851833335598 0.1498119289879910 1.0279531882976116 84 97 142
-0.2735368775912344 0.1632908208252334 0.7324113839558276 163 150 134
-0.2036315144467245 0.0859081408531399 0.9052816537087883 103 104 98
0.1625541376851475 -0.0607814024193489 1.2298451126428234 43 60 90
0.2196510299178107 -0.0516650679023171 1.2189363184449384 149 136 128
-0.2216203003688562 0.1926474567488463 0.9000145320608407 81 84 101
0.4999157879825998 -0.0153527485691792 1.1988808187371154 97 115 125
0.1103011814123978 0.1211067277386462 1.0854253834141820 128 128 128
-0.1742577977211080 0.1786154629215062 0.8263732422621439 37 49 71
0.0044657032623901 0.1111989106177507 1.0296069471739671 137 145 130
0.4301339283559498 0.1125902814280203 1.1246760158734059 115 103 87
0.1113433923571977 0.1669234307015571 1.1113241729090990 73 72 77
0.0705512683007387 -0.0685335425300979 1.1363870190962682 86 97 117
-0.1548597678240637 0.1428752629077595 0.9713833626222496 69 63 67
-0.1772186042261602 0.0622347508812559 0.9740857028935551 52 60 81
0.3999739486745246 0.1105295258858689 1.1139335312626462 109 85 75
0.4156153845826381 -0.0245916929192018 1.1537422548860883 42 70 94
-0.2429711704488697 0.1674012170938903 0.7500658296444810 148 141 123
-0.2065702886476420 -0.1083729258461041 0.8293364552378203 153 154 158
-0.1960503644468651 -0.1068012087573532 0.8957293182431627 74 92 114
0.3846397515399118 -0.0266643002922547 1.1367085704425188 120 128 175
0.2304625623918952 -0.0474529130466485 1.2217309940159675 105 94 100
0.2223430360054992 -0.0489135536740163 1.2553038740799012 72 89 119
-0.1928557499353894 0.0619838320969142 0.9650771606258084 38 48 60
-0.1808366813483962 0.0635596195445403 0.9716973892415652 37 44 60
-0.1903319020073114 -0.1027138845588607 1.0065571078599242 95 95 97
-0.1903488613253065 -0.1027704828288711 1.0065895053162783 95 95 97
-0.1159632521721775 -0.0914678747029875 1.0448747631682955 159 155 154
0.4665866771995489 0.2310469350946136 1.1202153409507110 45 51 63
-0.1955050985890668 0.0967106982588960 0.9541035100723619 106 106 106
0.4706580853661716 0.1843552137967549 1.1347044518994562 66 61 65
-0.2715259319152674 0.1666431042122458 0.7302099311505721 172 172 146
0.1120834201479327 0.2208813543947900 1.0627497595675190 91 97 111
0.0367003873827339 -0.0680949562284507 1.0871796748031191 144 149 155
-0.0794492875097954 -0.0834923839540381 1.0626839560750339 121 107 120
0.1605182035648734 -0.0510986518720202 1.1870446311878879 123 114 99
0.4470008692757836 0.2298265693274068 1.1072719701161036 89 99 101
0.4486929828793168 0.2303201094491145 1.1100462358580445 94 96 108
0.4563657441442907 0.2316952432925317 1.1167743732220692 82 91 96
-0.2094797055646332 0.2014863413158480 0.9240735009746214 79 88 105
0.0337760327246689 -0.0656628329419318 1.0863012732091115 140 153 159
-0.0635384010536547 0.1567820838874275 1.0266107657461765 85 111 138
0.4886183638998394 0.1241564677713904 1.1569231459888583 103 86 78
-0.2051080258080847 0.0603612707517798 0.9170071421387695 120 128 130
0.1591388753142492 -0.0489892659845013 1.1841864105264677 100 90 88
-0.0800788113683656 -0.0807733499851502 1.0628552124839159 60 70 95
0.4604922973778237 0.2333935466057313 1.1159823820505614 68 64 61
0.1558124801183643 -0.0494224489598674 1.1841098402330721 105 94 88
-0.1904346913730484 -0.0966099410649430 0.9018056019238860 138 149 167
-0.1094950077643900 -0.0837685466053640 1.0566141528152897 119 120 125
0.4826639911576007 0.1892551096937721 1.1382679754601737 97 91 101
-0.2350107696825016 -0.1020388481590855 0.8169843374359286 124 138 151
0.1257954946801116 0.1708611550917819 1.0817450993521720 78 82 91
0.1521603932594407 -0.0470330799745124 1.2075782595388997 35 45 55
0.1883653798908206 0.1832867892924978 1.1485011126080691 104 105 109
0.4698148249726438 -0.0069342595689089 1.1641111237254773 152 141 121
0.0476877132235016 0.0874130118864321 1.0400679529770309 145 137 126
-0.2359758420131625 -0.1006629594915999 0.8145707026237606 152 163 167
0.2333282934128381 0.2441470960441262 1.1601184258418411 95 101 101
0.4393989626022751 -0.0104153551648103 1.1468377811233437 168 151 125
0.2281247393394887 0.2433324520174137 1.1561062460605520 87 90 95
-0.1723664200262764 0.0832262280118357 0.8040865520622076 90 82 95
-0.1040294278419001 0.0782245992728906 1.0115603841750809 91 97 113
-0.2386322457495056 0.0780125184476698 0.7712144411001659 130 125 119
-0.0801434888419011 0.2159546580638177 0.9896917858174920 70 75 95
0.2068877512712455 0.1894006645157814 1.1664995088692520 70 101 129
-0.2444144266532529 -0.1016790450330570 0.8085827563560126 146 154 173
0.0751935976229851 0.0928620223986349 1.0543940495862845 140 141 135
0.4728700839193390 0.1260797524432566 1.1463980410534336 112 94 92
0.2061152333177235 0.1428544619135272 1.1636544237927133 112 108 107
0.4047730562503406 0.1183797068718659 1.1121236877493579 113 84 86
-0.1984695629098467 -0.0903158357412807 0.9992017145017663 129 128 123
0.4072531738824351 0.1186339803702608 1.1133577618621799 119 94 87
0.2611205790662142 -0.0306071462534803 1.2548759046205435 72 88 122
0.1584176003592898 -0.0428020182436438 1.1842441739466585 126 112 99
-0.2218343713376997 0.0996090542731021 0.9316974915669208 117 122 126
-0.1553644510001619 0.1821011849154936 0.7908771818156000 79 95 111
-0.0713378054285120 0.2131627054141912 0.9686834040393165 69 73 76
-0.1185414863762859 -0.0791992882185082 1.0674265597873198 73 80 99
0.0331546147000653 0.2204887045612861 1.0205130436097367 57 63 87
-0.1086052634691390 0.0798696529370445 1.0083463680129585 133 143 145
0.4693108941323719 -0.0036231325143735 1.1584860865069448 144 137 119
-0.0767672163424915 -0.0715444778382106 1.0620111182807022 137 133 130
-0.1078034455744470 0.0804172652056660 1.0122303849549397 130 134 146
0.4907533931504425 0.1303069030838281 1.1625662342187741 92 89 74
0.4949683388178654 0.1302410248522035 1.1588356083159119 106 91 86
0.1214097579740804 0.2365659590331130 1.0998082406239471 78 82 91
-0.2182291593899001 0.1525197719367510 0.9349103372508106 119 121 136
0.2699243722151099 0.2514933505038477 1.1783723107197084 69 75 65
0.2355742680365908 0.1499588134314708 1.1840502570441906 75 70 74
0.4850475797538081 0.1297117243694715 1.1560450133461941 102 86 87
-0.1921846767831459 -0.0893480522393154 0.8213958875010495 117 142 173
0.1116065158781896 0.2308488198122950 1.0678219150781298 72 85 102
-0.1757212903173857 -0.0818259039968699 1.0111176185721076 151 153 140
0.0591434488143946 0.1272755647862613 1.0554760476854410 74 83 80
0.2277849631322821 0.1187485687329054 1.1821609730832052 109 107 108
0.4347771014854862 -0.0035672782051342 1.1484971960263322 140 120 85
0.4111501186402242 -0.0089230087678762 1.1360779650139758 104 88 62
0.1021447271329559 0.1763803561902669 1.0683803908357985 127 128 120
0.0875706587059409 0.2201720713731679 1.0110710438045745 87 99 121
0.2708018694187632 -0.0224866338274283 1.2464987351748904 52 86 131
0.2142131762482982 0.1172580311556153 1.1733134534132281 121 121 121
-0.0425253342806178 -0.0654663686745381 1.0831932792067522 69 78 87
0.3945198081139518 -0.0099541385735757 1.1253092567425449 129 128 107
0.4483314411765786 0.0010537666676162 1.1611242763095444 145 129 95
0.4936702902174579 0.1318368547714542 1.1590595715297600 51 61 50
0.1230033249035344 0.1395790136839922 1.0926548171308776 89 93 96
0.4153853371314170 0.1225193076347516 1.1172031326334075 51 60 59
0.4320090283016050 -0.0052293185488353 1.1465266930640232 136 133 102
0.4720998954113825 0.2431065558870744 1.1251365806153222 100 102 115
0.1885482325808451 0.1935953571863195 1.1493910551596613 102 99 106
0.1552747913888247 0.2424774655509225 1.1144690640236561 61 67 91
0.2630846346932800 0.2549346612668830 1.1795807519421284 82 89 99
0.4233964852984816 0.1240222042870771 1.1165960973924205 132 133 125
0.0931516781331968 -0.0394160132159024 1.1139522220145273 52 60 79
0.4456166031039398 0.2383439575792211 1.1011142275382864 108 112 111
0.4092458351268976 0.1230301458516864 1.1111358587632014 135 130 127
0.1283153946707742 0.2408479585058068 1.1003543503557445 87 95 98
0.5049169009795214 0.2465780148710904 1.1352238390904035 34 50 63
-0.1079342990133132 -0.0728433836107195 1.0487082040263849 69 70 74
0.2569797892266730 0.2545288059055621 1.1695047978911415 63 71 92
0.2040384269924718 -0.0302692751540757 1.2140420824698637 61 94 137
0.0429489547966671 -0.0509288888785182 1.0876959241887418 153 163 162
0.4707262239836000 0.1319142297293357 1.1409152481105518 100 93 85
0.0755042023594100 -0.0455669276572975 1.1044392976705164 154 156 153
0.4551825647677157 0.2418711729828674 1.1092687000467818 62 70 89
-0.2214280252804093 -0.0806723380285458 0.8067496109129708 135 126 131
-0.1082334038640334 -0.0612875576573266 1.0530683271274570 71 81 106
0.4761794533817981 0.0052999750783813 1.1771116675166122 138 119 89
-0.1509231259712134 -0.0761981683331067 0.8537943892773059 151 151 143
0.4666090010644566 0.2430331416637759 1.1135774551467990 56 64 77
-0.0760766847546742 0.1253474887080736 1.0173276869826742 116 121 117
-0.2921599916927146 -0.0957037992129872 0.7749564199040574 181 186 192
-0.2082288847464387 0.1630862294087367 0.9409377628351556 65 73 92
0.0425029036192337 -0.0461568405010126 1.0866763711715124 152 146 146
0.1372595413051148 0.1158011250969832 1.1421785107953146 82 83 88
0.2955686908571326 0.1332349921549157 1.2195836943606406 92 91 99
0.2543728611593531 -0.0167557611390415 1.2357904099446502 51 68 94
0.0243331131664651 0.1775055454070852 1.0260221459894590 99 109 119
-0.1699799117920311 0.0672906218621446 0.8095966449567916 158 153 150
-0.1910110640495924 0.2008616957330747 0.8410029588580219 41 48 67
0.4545463163793500 0.0076980412439283 1.1629518846372602 120 122 109
0.4268401037502272 0.1978075241461368 1.1078606138822933 114 113 108
-0.1505538337398010 0.0874282746574501 0.9838808247908259 68 66 77
0.1005315326797813 0.1095145963462814 1.0725475949412271 127 129 124
0.4003699867841670 0.0024377194486637 1.1348916728189737 139 113 96
0.0981425994455388 0.2258944231073252 1.0068467491955888 49 55 67
0.4189545869064907 0.0045486635531822 1.1432710487153961 139 124 103
0.4154978483218406 0.1308165961937775 1.1153449637967507 68 66 51
-0.2241436214812473 -0.0753499983621475 0.8070267097286515 147 143 144
0.4575957851977700 0.0093021122330982 1.1632365955176227 115 115 107
0.2290101499420294 -0.0156420261832118 1.2180288731710871 135 140 136
-0.1634225304396904 0.1008463804122852 0.8174115511971477 127 138 132
0.3219988527362492 0.2337304741187911 1.0576211576515751 55 62 68
-0.1937089605747079 -0.0739914313250204 0.8227654304801456 164 154 145
0.3943388211894168 0.1569728617286520 1.0975421947463935 133 128 124
-0.1748779728890686 -0.0619691422122278 1.0153358374434096 104 119 140
0.4142035661984979 0.0057237013001183 1.1420259219853361 133 106 85
0.2379818125757697 0.1331220511351863 1.1875440982025918 91 79 83
0.1214980584732400 0.1203106651588376 1.1255981680371894 107 97 95
-0.2010418727649705 -0.0733291768785884 0.8216357803698103 145 142 135
0.4983464149672143 0.2086406210569632 1.1444555099638558 103 98 92
0.0079256544538792 0.1355883957944007 1.0252957202808011 134 140 140
-0.1585734049796667 -0.0670354597132227 0.8449439334522802 153 153 141
-0.2123733128026813 0.0867025232720600 0.9470797247225176 108 108 108
0.4001798976818897 0.1596424512355561 1.1008294153024458 88 74 71
0.0961978902302609 -0.0297031730137118 1.1116704390267127 120 149 189
-0.0036190668159426 0.1051430776254551 1.0266823112257815 148 140 137
-0.2176592336665167 -0.0659235497590516 0.9878154249044605 72 78 114
0.0095150094391112 0.1061883668427514 1.0303743481638465 125 130 126
0.1168683205054114 0.2317009649576851 1.0177441005438537 42 55 64
0.4645255872271645 0.0140356963045384 1.1683822877326362 111 108 103
0.4070300857420013 -0.1623075958569496 1.2574404309096123 57 43 131
0.4167008866362231 0.0086663041399912 1.1427011011588275 117 87 87
0.0426387599855266 -0.0359220920169043 1.0844658305566699 120 126 126
0.0993447641545898 0.1896621374599831 1.0554863588977521 87 87 87
0.2050502772561814 0.2475632989873186 1.0943635415075277 77 84 100
0.0406253339176708 -0.0305292705136920 1.0823260556108183 90 93 110
-0.1896139708920799 0.0915426061415355 0.9623693172942653 118 118 120
-0.2589808337069963 0.1902942070977606 0.7384031505007866 119 124 130
0.1140536498513787 0.1228184457288290 1.1236286495987577 78 74 75
0.1202211137609609 -0.0250604663270860 1.1165265181477166 116 127 155
-0.0522745930275992 -0.2237519552332024 1.2073017887212314 135 142 152
0.3959670983230331 0.0075360332282546 1.1317487521570497 83 82 80
-0.1647438485769924 -0.0587120357246909 0.8612843385925817 145 142 151
0.4472339237807743 0.1403481405582817 1.1284706153542123 134 125 96
-0.0885828488419571 -0.0506082148978374 1.0572989926443896 62 82 109
-0.2200192045479999 0.1228985028086601 0.9242804842524678 105 112 120
0.1980878161091666 -0.0136807675282537 1.1997473626712885 120 131 135
0.4455842039484531 0.2482308212977296 1.1029192926191751 109 120 114
0.4676882183353359 0.2089122009032020 1.1255240254549908 105 99 83
0.4077483859372951 0.1365396769938922 1.1101690264168229 121 100 95
0.1189656836358194 0.2288394416697434 0.9894467019433379 53 57 66
0.1700587389278149 0.2064420784056652 1.1346367708197100 67 65 76
0.1002466416819414 0.1180032754652335 1.0694413431105145 107 108 112
-0.1353323029775371 0.2247308724857432 0.9270203093817561 43 41 62
-0.1957428748150775 -0.0610237651449990 0.8302662888213844 78 84 100
-0.1559538503185284 -0.0548661916730391 0.8432494882424989 113 123 133
0.0572620924695651 0.1160626427022042 1.0684994957670664 106 95 91
0.0984007456604283 0.1934906138935433 1.0573550368177802 96 104 115
0.0828205375480529 0.2253289640675419 0.9600696043525683 34 51 59
0.0903896979301235 0.2262423164250130 0.9636830241950614 44 55 75
0.2749676419175190 0.2689394348431316 1.1778863012322403 75 82 108
-0.2252886894566471 0.1727741335578282 0.9214045466631262 51 51 59
-0.1086983992102463 -0.0422061785658826 1.0279796424755769 104 124 149
0.4321428491689629 0.0158182442023217 1.1425346127810834 140 132 113
0.0947678071109035 0.2261859538456920 0.9636808312788293 44 61 77
-0.1946806214971429 0.0862134264760901 0.8800275391676724 107 114 107
0.2064988469657399 0.1721054212017413 1.1706933602180596 93 118 149
0.0347649663196024 0.1140515302929300 1.0433781356587926 131 115 92
-0.8883394717226371 0.3814688692462058 1.5452896813080508 60 52 73
-0.2165295368759139 0.0940991981210063 0.9498190210894675 126 123 118
0.0954246981173176 0.1195747653985738 1.0667445819113672 127 129 126
0.0135941465771339 -0.1851731206395128 1.2206184847235004 83 102 132
0.1875381910262083 -0.0098595198140583 1.1831897249955134 96 111 142
0.1986923501836051 -0.0084623648114312 1.1897954137913120 112 127 156
0.0330891449637312 -0.1794941935115605 1.2257366082104633 71 85 111
0.1605576852626770 -0.0130490907983920 1.1625108934810757 122 137 170
-0.2658469931121929 -0.2273094964233764 1.0847697873616020 106 116 143
0.1912745416466269 0.1356985744864138 1.1584432609564796 129 130 124
0.1253541621880423 0.2352327525888604 1.0034466195437446 47 48 68
0.1241475913852584 0.2355535298801185 1.0046759387444952 51 57 69
0.3892633056255325 0.2031880550071690 1.0806652114732191 117 121 124
-0.1911228079193043 0.0962337947059413 0.9570397242549297 112 115 120
-0.1813565581892052 -0.0607378672690259 0.8304542658709031 94 93 101
0.0676887353333117 0.2243805103862473 0.9420692999331689 54 69 92
0.4502741937342790 0.2531124647834000 1.1043962712374371 104 107 112
-0.1800713422678508 0.1128386511028439 0.7931238929719813 138 136 123
-0.0862670704407667 -0.0308938718515017 1.0379669778003573 123 112 116
-0.0755093895656513 -0.0293931619367084 1.0445965350053266 110 100 98
-0.1904782723383494 0.2135318112946240 0.8383581725444699 32 47 68
-0.0729125333067605 -0.0404079204355569 1.0451626865813186 104 119 150
0.1957796812626256 0.1729578737721937 1.1580686194524694 52 60 73
-0.1822098190799049 -0.0417202418498506 0.9884235485351657 112 103 98
0.1184135716192731 -0.0165952748201518 1.1111267528720179 149 141 128
-0.1315804447897217 0.1033184172427323 0.9913416774506381 113 112 107
0.4592824943833567 0.1763412839495319 1.1306919320384750 96 98 113
0.4071897290526549 0.1405343449409352 1.1086174781144520 116 93 85
-0.2894182466671869 0.1455369628697709 0.7279744566494857 182 178 177
0.0931765745230629 0.2282310417875700 0.9567189241589449 36 54 64
-0.1767992775230444 -0.0409311810890658 0.9918034092676579 111 103 101
0.4043394257715705 0.1405633119834865 1.1078954173271025 111 90 87
-0.1956053051722486 0.0891821376332673 0.8826922438282184 51 61 63
