ply
format ascii 1.0
element vertex 483
property double x
property double y
property double z
property uchar red
property uchar green
property uchar blue
end_header
-2.2857940519297393 -4.1639428650123591 12.6751837109539824 153 121 98
0.5972930329189456 3.3818901079011696 9.0809180070638718 153 92 64
0.4838667436555590 3.5763154400420989 9.4934021191952240 245 179 145
6.9952558092677508 -3.9075582304030361 10.0962065717807228 153 120 87
-1.3772636587828511 -4.5256093894646421 9.2987138889682104 211 179 154
4.5154996228207134 -3.8954406006729054 11.6214046467681857 249 217 192
4.8650105382094679 -3.9379937864349559 11.7960398256336472 164 126 90
0.6421150447625309 1.1733823423575240 8.3603916450864268 128 93 97
3.2490483088024504 -3.3996844802014827 11.4439136692424412 202 176 159
0.2545461927243308 0.3885930780134301 8.3407035476312803 165 126 127
0.4106491156079306 0.6415360018476584 8.2581865414422992 75 29 31
0.4411939998566324 -0.0746510749727591 8.1986393457097986 221 157 129
4.9945003000928878 -3.6111136934273067 10.8839468980243446 163 127 93
1.0812323446233230 -0.1071589844200622 8.0851971602331432 211 148 115
-0.5468873328633821 2.1400826754266169 9.4592324531195988 97 69 68
-0.6924351424215670 4.9579422168548160 11.3584187573551336 199 155 110
0.1270198697322162 2.3344889243593685 9.2792422013751441 43 24 17
-0.8067513529874298 1.5857422057408697 9.8880016383666298 222 164 150
1.7793308062666062 -4.8205421687674175 7.8519736252955248 180 158 144
2.6450091613217999 -4.7540222179916602 7.5358637971769369 185 168 160
4.1678349144459528 -5.0447451516539603 7.3512912572769507 129 82 76
2.3936929437037739 -4.6307941504436974 7.8651858833140542 227 201 186
2.7342951723087938 -4.6929248276213702 7.7988898818279981 170 159 153
3.0783174363419534 -4.7476762565490525 7.3903381214643966 169 89 54
1.1159922398806807 -3.7112393790247511 9.1614057252240286 193 164 150
1.8310627500780259 -4.7323188298813594 7.6918762033280190 201 182 168
2.6184621461551769 -4.6993373776457839 7.7800146195304150 189 172 164
2.7662884268045858 -4.6251960589378882 7.6718402164481434 201 187 184
0.8364027126598514 0.8709806970933529 8.1256162532590146 120 68 57
3.5491945678281391 -4.6511967319896748 7.0849684375848874 111 56 61
1.7455713548566096 -4.6095050435756324 7.7586200798746843 211 185 170
2.5302694115064623 -4.6196844404771396 7.7439763335665290 65 47 37
3.4922705947617434 -4.5743843022332484 7.0527784230698645 227 189 186
3.0725215261253203 -4.7485879868676797 7.3890037779946711 165 81 47
2.6572117138613485 -4.6022468793145013 7.8514531732722554 209 189 180
1.9155863056458260 -5.0518196928595973 7.9404203455675582 84 62 48
2.6837473721188636 -4.8348265601219129 7.5885108528750669 74 59 52
3.3483821080404850 -4.6374052921197890 7.3044065896323183 169 66 51
2.8324922368570720 -4.9014191299825951 7.7617690708810763 195 178 171
1.6676986152833424 -4.8126844196955840 7.5945077511329675 84 62 49
-0.8205773519526438 -4.8861814235864021 7.8826904753972311 78 81 62
-0.7886625686517456 -4.8752562340134542 7.9582388112911486 218 205 186
4.0283960870544169 -3.6382666817742284 11.5641043522268241 163 122 90
3.9638220355230729 -5.0785914121336466 7.4239355313925701 63 30 25
2.2607528194737898 -4.8171879845948880 7.7384881735563882 219 202 186
2.5482497313299231 -4.6672758347424006 7.6329350783201173 85 68 58
2.0572650972493891 -4.8871674025741383 8.0463064201624750 113 94 77
2.5139527079624879 -4.7326897547096420 7.7893172276290388 213 191 177
-0.7521841021653580 -4.8622083100177882 8.0257253876859878 90 84 62
2.7427767940399450 -4.7178296491727689 7.7429783811918700 62 49 43
2.2830050282395655 -4.7706276103456009 7.8830560251676447 215 196 182
1.6908980189619309 -4.6782938909653105 7.7593831872088757 66 49 39
3.4201790636306755 -4.8670869807150892 7.1837967352095786 225 204 209
3.4673738921557189 -4.6748439893656855 7.0076462470696583 200 117 85
2.3638084640479451 -4.7096702117300557 7.8663467925572998 133 115 103
3.0344003351903619 -4.8127191220467989 7.2391449149677136 140 39 27
-0.1143138014986400 0.5668852982025837 8.5236202596235255 133 79 67
3.3820624150890133 -4.6948213820288904 7.0727636385102475 100 46 44
4.4220761223665530 -4.4578575162591676 7.7072197810291252 175 82 67
-0.1758365800214743 0.6448377320472647 8.5617439330005887 210 157 143
4.3755963359065149 -4.3814790944655799 7.7683208170265186 203 125 86
0.7499379202287810 1.2672559849556928 8.2750829334673366 123 87 89
-0.6935304813113788 -5.0376621562497679 7.5384702189748012 217 193 167
3.3557754313515082 -4.4466273191889156 7.2983282996281904 195 90 71
3.1507836776334579 -4.5957741003912620 7.3471991385777997 186 159 152
-3.0294535748724774 -4.4127759123418659 12.1674970979288268 160 121 90
4.3348437408464093 -4.1801409939013796 8.0215164036454567 237 153 93
3.5571528291327259 -4.1780146930505655 7.3794386586639522 205 99 83
4.4826291758193069 -4.4504837797354257 7.6147605875991919 208 178 170
4.3137319491877273 -4.4876480660714249 7.8367370097911557 196 173 167
5.3379788441698937 -4.1323110484812693 7.5240996349162650 246 235 231
-1.8115588779517469 -5.0437650355889172 8.2769454361079369 71 93 72
4.4797455084602040 -4.3557029256838540 7.6728478949909649 218 202 203
0.1065737774539288 -4.1259762443894070 8.0230406658822204 166 139 120
-1.3579377943011628 -4.4863993443961316 9.2306717201838175 211 179 154
3.2073191618561232 -4.4466764321607348 7.4457286314876256 190 97 66
0.2853147281836780 1.0289543011117244 8.5796058153707762 236 167 138
0.7364497882407561 -4.1515027367434643 8.5544496623610797 207 176 155
4.2945870337349197 -4.8023466319075618 7.3794687687817619 167 90 62
-1.1277585714130454 -4.5045738240746811 8.8874649003472168 186 155 137
0.4826789737134825 0.5141387858959824 8.1156826037383265 180 109 107
0.8343962183986273 1.0499124333319607 8.2644952929531481 59 29 21
1.4572480403818828 0.7288004322008926 8.3294837004127729 131 71 45
5.2631647752227364 -3.3662745367982079 8.5644835759306943 208 181 162
0.5953480731443911 1.3155897389853259 8.4125718399903029 35 11 9
5.2182356995471881 -3.3197930824155617 8.5045566017717302 210 183 164
2.4496469346203549 -3.7367925194497866 9.5321660122285579 186 154 131
5.4898112378184134 -3.3190715961260993 8.9379394623334978 254 236 216
3.4416171845061538 -4.3460142218835740 7.3862008004614426 221 213 237
0.8306644171206654 1.4627575494108660 7.9310848502722431 112 55 48
2.1844757990622505 -3.5469115691205855 10.3444795860390109 118 76 54
-0.7338596685181593 -4.9921851007519926 7.9807701544043290 238 213 191
-2.8058476109160235 -4.6206180669861769 13.4655416606499632 173 132 100
4.8427443951098006 -4.1754245637581935 7.7456887241051291 233 225 238
5.9563253678339443 -3.9994946527124378 7.2828587495479118 207 188 174
5.7911722057522415 -3.1501648987571769 8.2741245162401675 154 121 88
2.6678411893688700 -4.6469930321259696 7.7190713012879293 162 147 140
0.0667031413880305 0.5287029803843436 8.5129120217754206 88 48 40
4.6741691630608999 -3.9032005740825060 10.7277391957842863 253 224 192
2.4477834317095937 -4.9917005959186298 7.7440539330969616 216 189 168
3.4753546942783053 -4.3872267950513972 7.4877544589003673 219 211 235
2.9812494622391363 -4.7919920944792400 7.7472457775322017 199 183 183
1.3581549039919767 1.4819532422725823 8.4938897265456035 213 142 114
-4.6248264288673901 -4.7174636403996546 8.2667307495825106 204 177 156
4.5040509397642081 -4.3457123808080329 7.9434161792506179 234 224 233
-3.0927324981781235 -5.1235030629902960 13.7616822784772150 253 232 215
-3.3385765808760812 -4.9643176813263308 8.6081855305803163 243 216 189
-0.0605334867833700 -3.9579330298361737 8.5237301662707967 134 110 100
-1.0339540441855530 -4.7003269182243796 8.2048292723791327 236 210 187
0.9530709309927057 -0.4806566363922040 7.9862172852946243 74 41 32
-0.0485540122177597 0.0606383751624896 8.7124940479344186 123 93 93
2.9010728106134520 -4.3768266171195753 7.7700498132348077 227 213 212
1.4915657461567735 0.4438318700041666 8.3911096281593949 77 40 32
0.6874351802373778 0.1895728339903061 8.2138261095926488 61 31 23
-4.3938682997894940 -5.0686225277798780 7.8402657944407856 209 186 172
0.4951374591903459 -4.3347578029351430 7.9396729267266242 169 140 122
6.7421846886768426 -3.5428051881528511 9.5500537526053400 163 130 95
0.9276309016120037 1.1950624671827168 8.5971774642604259 68 33 27
3.7081799264638300 -3.7524264596990959 10.7125133876205272 254 225 195
0.9046861874167766 2.0097528360408963 8.9776471400032314 255 185 151
-0.7854295110481899 -4.0549940182123629 8.7653605920277542 229 219 228
1.6256239443850209 2.1577595734896486 8.8816148579137035 46 26 19
4.3635812766680306 -4.9666477687293762 7.6997726401287752 103 29 16
2.7393200998213252 -4.6140553262162962 7.7083097864752288 86 75 69
1.8746371545758238 -4.8550942295198265 7.8088798947922600 79 60 46
1.7508320536889939 -4.7886195954176118 7.7155650467613848 85 63 50
1.9171918269476476 -4.9066242356206606 7.7665270591811595 209 186 170
1.8403209567188701 -4.8507585199780987 7.8155983328876930 201 179 166
1.8082703679421352 -4.8037033986679312 7.7799354224030051 83 64 50
1.8828939744350730 -4.7842588026433699 7.8931379070038243 95 75 64
3.1521302910516233 -4.5946590828254683 7.2745063361270663 201 172 164
2.3590496237464609 -4.7490470801296008 7.7152067232496817 77 59 45
3.4564080708404443 -4.5262044490232825 7.0371578096588934 229 182 174
2.3046716241402732 -4.8039715276504600 7.6465940233601080 76 58 46
2.7076439547961733 -4.7601257775908437 7.4311299858819577 107 90 83
1.9909262835481558 -4.8424091624453807 7.8868871426124754 206 184 170
1.9591046543775690 -4.8223307947057181 7.8839625670767042 100 76 64
2.5505009010958672 -4.7609837354442037 7.5752813461546591 83 63 54
2.5617491803824728 -4.7132179236312215 7.6955357528206614 95 77 65
2.0075810686305484 -4.9150164388468518 7.7178205044717876 85 63 49
1.7263913015902648 -4.7848350705994482 7.6236794728202026 189 167 153
3.4999164933692306 -4.3454944351019007 7.2926351296999661 215 200 219
2.0886937309325653 -4.7996182239790555 7.8883208077241465 95 76 62
1.9136121443619827 -4.9126973790268220 7.7395587169245719 214 193 176
2.0242649190532362 -4.7825206223931715 7.8783484183002086 90 71 56
1.7588154651092440 -4.8633054041919008 7.6753939058048459 97 75 61
2.3776702263043945 -4.7926017785241619 7.6536399759163647 91 72 58
1.6361583224304974 -4.6796044167130937 7.7333613861898893 213 187 172
1.9323083210478700 -4.8097291239176849 7.9124545257411079 213 192 175
2.1937720231684921 -4.7379013684264066 7.9586902631852592 214 190 178
2.1286337147409511 -4.8689967698949133 7.6911151071266941 64 46 32
2.1557149349213409 -4.7662588741201963 7.8512867396795576 93 75 63
2.5259357892932983 -4.6671025123689622 7.7707139636780473 69 51 41
2.0276307675080782 -4.8863639706897075 7.7655501164497664 189 166 152
2.4171082312536956 -4.6798565617333159 7.8093467694201468 194 176 164
2.1615748806794648 -4.8509261952654290 7.6776870380170958 201 185 170
4.3233532029984216 -5.0412769537594793 7.6474442244731753 152 96 81
2.7069530442915903 -4.7072591004493498 7.5120359506388334 87 70 63
4.3899458846349555 -5.0129272128588500 7.6726631078229817 173 121 107
2.3303146645154067 -4.7613127210618220 7.6674357288292319 210 192 180
3.2031729196803140 -4.5709997549540686 7.2987892589447210 210 183 176
1.6426468241201018 -4.7726365739305106 7.6685104923711025 214 191 177
2.3849586233204927 -4.7773421186143086 7.7079854960384422 202 183 169
2.4462751244417751 -4.6565160828303762 7.8196453863485020 90 68 54
2.6700705426680820 -4.7195937171870863 7.4872194997018120 193 178 171
3.4914453681155253 -4.5668249772780127 6.9734253293377151 107 52 57
2.3480724068421557 -4.6824388064888405 7.9114194503696984 214 188 175
2.2022550376406911 -4.7966941217756922 7.7490946640031018 66 50 37
4.6277142665030180 -4.3637709328646270 7.7671207564098941 167 146 141
2.1971215221156828 -4.8355118724689472 7.6747707247307950 87 69 55
1.9233137191746088 -4.8511049025018025 7.8416524350660639 210 188 174
4.2920416524160201 -4.2269355138808411 8.1013887711749177 235 144 87
2.6903290198947345 -4.6735361068818380 7.5778314623859497 186 169 162
2.6146917926249418 -4.7400494040147798 7.5629321711331245 66 49 41
2.3018826500932246 -4.7572302615277522 7.7320422804418429 65 47 33
2.7420621698193473 -4.7559520449769748 7.4052099300600904 200 173 164
2.4231466583104102 -4.7670453780589401 7.6320216910548133 114 95 80
2.0125749656612695 -4.8583598372537065 7.7859473538274315 73 51 37
2.1177093168677157 -4.7934046936792534 7.8464460018121418 204 185 171
2.1345628277094368 -4.8288207386146373 7.7537000906836235 92 76 61
1.8687326295534621 -4.9120183440179979 7.7348666958469057 84 62 48
2.5927269239832986 -4.7741519525838454 7.5329015266412629 192 172 163
2.4854344223534430 -4.7909537489924698 7.6167683751708788 222 197 177
2.0753326416391560 -4.8681292838669492 7.7663016436194683 202 183 168
1.8548053897444703 -4.7061479873512253 7.8884970932306189 217 190 171
2.6288900265638557 -4.7057439345566889 7.6127065521503088 189 172 162
-0.7396895412961705 -5.1308993034941581 7.7096500070463057 225 199 174
1.7808637977446466 -4.8297856838589919 7.8676027830107031 189 169 158
4.5460822766073621 -4.5430570591557959 7.6674890600230547 197 164 157
4.2472858300146479 1.1473383094725842 13.4069627513782130 56 33 19
2.4232407530500901 -4.7293027956662552 7.7423331217502458 150 132 120
4.3767473560505525 -4.5956678767993289 7.8250243037416549 149 57 44
2.8394551264092271 -4.7425318497503373 7.3634654878501165 179 104 62
1.1842464782352695 -4.3438482951481809 7.8781224017852063 186 154 133
6.4435871445897908 -3.4422362433839346 8.2030717518278244 146 116 88
2.5028321674511771 -4.7177553648852140 7.7361406248271933 213 191 177
2.2071312762940969 -4.6987071918168395 7.8188924814238048 81 64 56
1.7517051782404975 -4.8942578975395969 7.6101104880296893 219 190 172
4.4895492098142116 -4.8003061951622108 7.5120766935252403 138 59 46
3.0840710959258164 -4.7828308764267540 7.1655649127494456 187 91 67
3.7264963992808191 0.1144299446905598 12.6692432151613730 162 101 82
2.7108679232470365 -4.5920944498894469 7.7406885922455171 89 74 67
3.5352737393463660 -4.5413217974994176 6.9530288854435245 208 174 172
4.2851918234320330 -5.0676426082649124 7.7956461610858270 137 81 68
1.8527253601091112 -4.9497110757789820 7.6853062728483827 222 196 173
2.1690925467438569 -4.9027295397326958 7.6790816794699470 210 185 165
2.9940134321449516 -4.6496209171553984 7.2934754019745691 200 158 144
6.0866775754501106 -3.5619604001175333 8.9883649852582206 242 218 192
-0.7869908387464398 -5.0465288502487375 7.7546723917796907 65 66 50
3.7045462302888539 0.3357857791123208 12.6206379944016209 88 38 29
4.3650117309679413 -4.7239239017948265 7.9414568061872632 124 42 31
4.5182747788545790 -4.4967429409929087 7.6915871873487323 207 172 168
3.6868971225612173 -4.1195885536877341 7.3848263870474904 235 212 206
1.4496837696092162 0.9229343005883545 8.6292957205112746 220 147 114
4.1259651393094554 -4.2293583262816759 7.9570344450607440 251 220 200
-6.7872873564469209 -6.2450848758261213 10.2108540606104672 158 143 140
3.6406347237067824 -4.0433006423638069 7.3611923060342539 245 229 229
2.6314268629899726 -4.8097204283262407 7.2426467384820574 205 181 169
1.7492442664371042 -4.7699675194413675 7.7650360762732387 184 166 154
2.0569567397371848 -4.7945534507176069 8.1428596269994991 227 199 177
3.4390228316769806 -4.3532452976071125 7.4071890959955073 219 211 235
1.4388094399391744 -4.7354176173802065 7.8124709166016091 233 207 184
-0.5048652696613118 -1.6731718790719932 10.8130085455721101 111 81 81
0.9761685816923464 -4.3121393250452789 8.5659639484057486 160 132 111
3.9773361873611566 -4.4636877952464369 7.5329522575652472 123 46 40
3.5846584998684143 -4.0830050135971101 7.5744310998245838 246 228 216
0.9041481606278226 2.0022954985647718 8.9803888882362237 255 185 151
1.7142133887629178 2.2480659559496887 9.3476551921112883 46 26 19
1.0618315052721539 4.4688978467260103 10.3975123634623952 93 58 38
-0.2996286289097467 1.2741581157000192 9.3508237232408984 221 161 153
4.0478106445980497 -4.3743009387155469 7.7516061845275885 204 161 145
1.2790506548974208 1.3909263425275129 8.5121811692509404 235 149 132
-2.0238209568505776 -4.0924411950237340 11.3360924757393331 248 237 233
4.2649741540523411 -4.4658518782036678 8.0052680590319572 169 92 50
0.4053536547125639 0.6473373619243268 8.3649284895860170 82 39 46
1.4414585059050247 1.2608258502261096 8.7575911628751939 150 80 68
0.3075542061855941 1.0245753255887418 8.5312796104200910 229 157 132
6.9233518355368986 -3.8838691042329887 8.1248392581261832 248 229 199
-3.2219687082729211 -4.8938172710773316 8.4468681938719694 239 213 196
1.7560160728335603 -4.8011565438272683 7.8172405973076007 166 144 131
0.4426235750528216 -0.0624325224916455 8.1305922996842348 221 159 136
1.7789784386358620 2.7560194212969571 9.3560806300761303 51 30 27
0.9280637311094453 1.1910764353186516 8.4781489417210185 70 35 29
1.7832314815518933 1.2447450063267631 8.8183720715218321 218 132 107
0.8383653974605486 4.4896311150602504 10.5443161268581758 87 59 47
0.2349013782986586 3.5375722606532878 10.1578429131386283 253 184 145
-0.5681923358967362 2.2616828221235217 10.6163243673138936 176 180 192
3.7537689384955928 0.6838955653603961 13.6463319268630805 153 95 83
3.5558844601166131 0.1762925652907288 13.1410048114299869 173 111 96
2.7821209487904932 -1.8687096392918501 13.5101069644810519 80 49 29
1.4336294801438070 0.7184612752290023 8.3717465477853636 137 76 57
3.7810605259996524 1.1251191695307441 12.8474536213859469 100 56 45
3.6072156873203287 -3.9518953280667506 7.1209474460020319 234 210 208
0.8511930140100655 1.4861262781382814 8.0825724259583200 117 57 56
2.0097614941456561 -3.7894131032796912 8.0167623499286602 239 213 190
4.1023152755923933 0.8890170007384223 15.2141790951357958 73 40 31
3.3293543875584324 0.5375498727261391 12.2966464210420057 153 104 90
3.0047675354590866 -1.7689297513950535 13.7699492288605647 182 143 110
-0.6698779368435346 3.5929678634275035 11.1756725343281413 234 179 159
-0.2883062756955063 0.3555591607114280 8.8464333840904281 196 174 186
3.0537402996939464 -3.4282509713701845 12.1606547276891597 210 186 174
0.2146085083967633 0.3682364898299236 8.5123239497708241 177 156 171
0.6109169871622241 1.0038851653761782 8.2229387733237544 104 61 52
2.1884807659149388 -3.7443529909218389 9.1884303245219758 247 223 199
-0.0964875390531163 -4.0717788049368080 8.7016707865007259 150 131 125
2.0060253263415437 -3.4213267965229237 10.3694742095416732 120 78 62
-2.5942822182504299 -5.3509024246647865 8.4940968985904561 88 109 92
2.5270599009434060 -3.0645948360326383 10.3981385406799749 137 95 73
-3.3256059233852695 -5.3938774064484889 8.5274400163918056 76 85 68
-0.4999523185887360 -4.2072751080900348 8.4606051679448147 248 234 231
1.4662352087098720 4.4092347015948334 10.5994874441461437 105 72 55
0.5258607511463321 -0.5357266106972244 8.1938103747409574 76 45 42
0.9576594747460854 1.1925049722262857 8.3660674153022967 79 41 40
2.2220226568671766 0.8192765881632176 9.0352545898792709 142 83 75
3.7984229095888788 1.9808754190169950 13.6539765333411118 34 25 20
-0.3095755428696612 -3.8270035587140803 8.7823176595747601 196 182 182
2.3443967457761037 2.0205208132772250 9.3451228859705466 59 29 27
3.1159041097776012 -1.4062907622709022 13.7500081038927888 154 121 88
1.9528871519558686 4.1218537617028410 9.1073522236649893 92 65 54
-0.4697480078594570 2.0438423477128156 10.0179538497066396 150 132 148
-0.5156041224324087 2.2688479549626939 10.4149452629363033 119 121 136
3.6923624184325976 0.0381287819912261 12.3683377666325729 143 81 66
0.7396791422545254 1.2283923687908656 8.3204733167401930 126 99 108
3.5546091400936608 0.2254504261419760 12.0665866784330085 187 122 102
-0.9579340704959506 2.7509005617474611 10.8794786844875606 166 154 174
2.9183692527114511 -1.5033943944588433 13.7977023274868014 42 29 21
-1.8753405435335950 4.8717237107149787 13.6674169289227319 190 148 110
1.1610835951677216 1.2669341947864323 8.3895895576786952 42 12 14
0.6130245955866290 1.2959249675075788 8.3152282064786256 82 30 34
3.4104721059920857 -0.0955597514802394 11.7699611491181866 181 109 97
0.8242259628195173 0.6328328180698668 8.1775943009986367 67 20 26
3.1512559762011167 0.5879768256284469 10.8076939749327945 63 34 28
2.7626380434455529 -1.1053593443909451 12.0133051536328992 164 112 91
1.3106176674773049 -4.0254943139159609 8.5501990404129593 162 135 118
3.3497865536863349 0.5574676644348053 11.7904482745765389 176 114 101
0.0670569288422529 0.5141735205909167 8.5608884139092360 90 50 51
0.3814644871166178 4.9822903026579484 11.0400612784926277 33 21 21
3.6065130336949078 0.4538416892674333 12.6778691440961744 88 35 31
-0.2862870526211708 3.3961801468934198 10.3443733623420737 240 182 162
-0.8388395900004838 4.5463198098640545 11.9670759405880140 42 32 31
1.1091208154032850 -0.0877947694820000 7.9798794153366908 228 162 136
2.9503278999345439 5.0081204511585797 11.6392865223224824 201 159 121
0.4054229294888342 -4.4914846483021762 8.1835993865825678 163 139 129
2.9445443378989404 2.2551195424241226 10.3835810411239091 156 100 87
0.3940917745935621 3.4297760131685235 9.9032361841695327 255 187 152
1.0103596601870475 1.1922299797111915 8.2008107939189010 87 50 44
0.0358965956225207 2.4071771101674617 9.6115835881075160 42 22 21
0.1697420150449428 -3.8919246263458525 9.0811207418157398 154 97 80
2.3527151771384580 2.0289725898875730 9.2917418699780061 59 29 27
-0.8202487570277234 2.9343362861313960 10.4085026744070230 92 78 78
1.6931449479342207 4.6930940587562242 9.9568599057626859 120 81 66
-0.9881535380560157 -4.9821812558121978 8.1049528570608835 91 115 89
0.6126283339098497 1.5895276975859978 8.2265887020355919 236 214 227
-0.5895116284472026 2.2868676948796471 10.1527995807991900 71 50 55
2.0770863906170494 -3.2807926971806496 10.0168355091835952 123 80 63
-0.7072841368123155 4.4656069296465351 11.6794305224338686 52 43 44
1.4788859813879094 0.8976233310720074 8.4962629615643994 236 157 127
3.6081923206847417 -3.7096356169806026 11.6867770266242097 255 232 208
-0.3696824654873563 -3.4868704589935668 9.8254528151439668 184 172 184
3.3820914717509969 2.1110402001481479 10.4825211912023857 28 18 16
0.6896943287914737 0.1686085796303131 8.2139153710581354 71 37 36
-0.2674123498180275 2.2596476122653582 9.8260462896410186 187 183 206
-0.2399286424266019 2.4572574152519109 9.6209049041143651 170 165 185
0.6008343378697084 1.5670702128708265 8.2638221713468827 255 248 251
2.3941268816521322 4.7483573340403131 9.7339673891826468 126 90 66
-0.7524898432130988 -4.9520101911389194 8.1132415253110786 245 227 207
-0.0111792799358264 4.0569056962785774 10.2314262410980170 69 53 53
1.0368380329092228 -4.4932952454804518 8.1511342429514091 205 179 164
0.1576473531609761 4.7959902178997496 10.5609753082231244 85 62 48
-0.3031768407349718 2.8026274684239043 9.5020425793186831 164 155 174
3.3275052915372640 0.2052757349216629 11.6491317682391280 188 119 103
0.8033457457734036 0.8816176783803849 8.2199656125522722 157 98 92
4.0499417283560497 0.1482420221800133 14.4899933277555348 174 136 100
0.7369446678827283 4.4612535965289704 9.6945489944700807 92 90 101
-0.0916740590285022 0.4315946347867605 8.5716197404358763 192 172 181
-0.2254409453198859 2.1908779327127643 9.4083731915990896 193 180 197
3.6889706083942717 1.0461745677261729 11.9933034722322134 125 81 70
-6.9804202477626731 -6.8723862707374890 9.9289551401919116 169 157 159
3.1383548284274614 -1.2939848925258053 13.2778992135434422 180 141 110
0.0462920594016001 0.6154888384887033 8.8719660173507222 168 129 134
4.3232648130538127 -3.6900614924572555 11.8111581589034618 139 109 85
3.3729906954463447 0.3373759944044304 11.6535108642376528 133 57 43
1.9169721265123605 4.9656276672363990 12.4840900528527960 92 66 53
1.4754923783147544 5.0031776586507961 9.7448109643182637 85 54 36
3.8835001573133323 0.5331615219762140 12.5211183244590725 165 99 85
3.9916909833244971 0.2184217281675499 15.0757644094769532 52 30 19
2.8747676850045081 -1.9586517748669581 13.1799542744871712 177 138 107
3.7693216620255270 0.7309993949986175 12.4130636137004782 180 115 97
-1.3265776463577323 -4.9349335428417529 8.3100170477508293 231 221 220
2.8116902075379757 -1.8376868196401746 13.4360086176490476 64 38 23
3.7683200941334221 1.1618386318374139 11.9593527687527725 107 61 48
-1.8366573066641410 -5.0973025753579382 8.4773691463284795 236 214 200
3.5269704554788124 0.9324845267919213 11.8841684762106574 138 81 72
1.0516782073435049 0.4389338453452090 8.1843284243008529 136 68 69
-0.3507072889870491 2.0254750336876581 9.6031726053515776 167 152 173
1.1266278047550433 5.3276182347500329 10.4699071268873674 200 158 120
0.0795594700142238 0.4694588413761807 8.6543382066028052 87 48 51
4.2562269850052967 0.6574739899859524 14.2259677345861224 185 145 110
0.2894246125857985 0.4268827233476476 8.4530977652773878 199 160 181
-0.4618812398432871 2.6765842679953424 9.7833526962784099 184 176 200
-0.4145685939474825 2.3056129573310309 9.8198647356021684 61 41 43
1.2709725745865346 -4.0964627911164468 8.6574635405018707 158 132 117
-1.0318991997064300 4.3810026436300165 11.7923911426690236 196 153 118
0.5041052557346286 1.0055800263199324 8.4786655100147694 119 76 70
4.4002191289886463 -3.5407648505604352 11.1049171302157070 253 227 202
1.3066089122197073 -4.1287276654299152 8.2254442026391441 227 207 196
0.3431494545107794 3.8593610318902112 9.6315874585714258 244 196 192
0.2878781583617715 3.8661021768313875 9.8034387660144287 235 178 159
3.0321903788489530 -3.6277804105142253 12.4721301350193361 219 193 180
-0.7507211471647179 -4.4702119783433245 8.8712742900906889 249 235 232
1.3875133542883704 1.6700086731575043 8.9587443452701248 231 154 126
0.9729614912651930 2.1774163728968725 8.8956131791838882 255 195 162
-4.7411296582566962 -6.0356225959715690 9.1196549360725587 57 68 54
0.2601010476596590 -0.1348617829073446 8.2811725710616866 205 157 153
1.0016574588923555 2.1828657741729574 8.8182310632429477 250 194 157
1.0693985212827961 -0.1217879042187759 8.1202652435187801 210 143 116
-2.4939428314610823 -5.1508732564815380 8.8580944916195250 245 223 212
-0.1859555145816824 2.3371142340661710 10.1717452285416066 33 25 23
0.7911830484246941 -3.4299416290659845 10.3742110912254351 99 65 56
-0.3484753595834498 2.4972585674279464 9.8555175730617357 86 59 64
-7.6455150628081503 -6.6052102060679889 10.8746454571079294 222 216 230
2.1777463134579538 4.6680542065247401 9.4374017678600772 123 87 71
0.7803017641003822 4.3841200618357412 9.4502422358669715 103 101 114
2.6787171560512117 -2.2650290409751079 13.3431106680162461 122 76 52
0.5871161893153736 4.3720913181450474 9.5503671593666066 79 72 79
-5.0239855838451666 -6.0174762979890311 8.8960539846985434 195 176 169
0.8382082348437667 4.3337068965834460 9.3823594274180522 50 41 46
1.2408896800645572 -3.7658279960821206 9.4645193514633679 192 170 157
3.9256359839984429 1.1339877689438507 12.4391857620081954 120 78 66
2.2608164123254197 4.6524844806999441 9.4843884645332217 112 76 62
0.9703081440328948 4.9254501935328490 9.8540577313449216 79 61 59
-0.9111728716643404 -4.9632357958224844 7.9794228062328081 81 92 76
3.9802446073752700 -0.3660934044364514 16.6064489746366135 196 158 122
1.9862146108085739 4.1911605075706184 9.1320556195175158 31 18 12
0.5642467902367131 -3.7937179467511410 9.0839230774138766 162 111 92
0.5762542913688120 4.4451681774713405 9.6073945594741765 31 26 32
3.2279083888641655 -1.1394118421231236 12.8792657178111476 166 129 103
2.1786036835137561 2.0685415837460974 9.1229791807529370 87 66 65
-1.3450467194981257 -4.9504394932055895 8.3014686081444111 231 221 220
0.7799079010442769 1.2665044593372430 8.2401896922531339 152 131 136
3.1129099098265929 2.5126366587654130 10.2430823412364500 74 37 31
3.3231502581156112 0.2543281875300030 11.8589645752123580 133 57 43
3.3862061113596691 0.2962003913802714 11.8323130598118347 131 61 49
3.1219162063092982 2.5201352893216393 10.2269428857916491 72 35 29
-4.4382153199502712 -5.8604204036246914 9.1822930161064704 77 85 72
2.3839357947255189 4.5018041396880113 9.5104301802039828 33 20 14
0.7262150915844976 1.4270832836778808 8.2375776089903621 140 72 69
3.6785129825681304 0.8980865118894619 12.5555551379507957 119 65 53
3.6343981411790431 0.4475329238595772 12.4944456941285189 101 40 35
1.0177919618939084 -4.1481654470289122 8.4165088747927239 168 140 128
-4.7022137668346593 -5.9463727912901225 9.0319860992322329 61 72 56
0.0894786071324775 2.8539041449869988 9.2135153111291057 60 44 44
-2.1119338594694459 -4.8564521413598518 8.4623160190223068 247 236 240
2.9609195356833062 2.2351748536835498 10.1442766677360101 171 112 96
1.5056318759310241 3.6381100180598986 8.9229318610799737 56 31 27
1.1332965746150667 -1.2461042170180558 8.8561498434243759 105 67 58
2.6919056050779990 3.0772353782006912 9.2800833552385491 51 31 30
0.2683640281015579 2.3924712985264902 9.3114401097736827 40 30 31
1.7695432580790396 4.5789513778455611 9.2189676418217594 126 90 74
2.1936310074071748 4.6212307227130207 9.3755478648900574 60 32 20
-0.1584157219909618 2.1581967828287709 9.5875105960397224 157 144 153
-1.1610260284305827 3.3165403410062262 11.2805562992527779 194 157 131
0.9258811999704547 4.1536150102916523 9.1099216888184831 115 102 111
1.8493898675689746 4.5035415689949341 9.2827047059972561 129 92 76
-0.4660412084221562 2.3792046961230704 9.6986133730049673 186 145 125
0.0571220726313013 0.7633904329062285 8.7297400664230036 166 110 97
2.4918662569967132 4.6526969673886240 9.7712599098788040 131 88 71
1.9402622737306006 4.3479544714280527 9.2022708993652120 53 26 19
-5.6419193346251477 -6.1407468096159104 9.5335350838134723 234 219 212
1.7252348261855286 4.3576784602660528 9.1777690209130061 93 54 37
3.3938027667848583 -0.8022978446523470 12.9059320790708032 168 134 106
-0.7674930643705604 3.8248306546001816 11.1064959830561119 61 49 49
-1.6898725908665764 3.5765602922381641 12.2070701497789589 196 155 123
-4.6600395098355261 -5.8452518184411701 9.3705679083605631 219 194 174
3.7045589645332782 0.1280775531123295 12.0003376185045028 163 98 80
3.2621697764772208 -0.0233296346933021 11.6130020550707904 173 103 93
4.4409093354480591 2.3470005406421448 13.9009771560587598 75 46 30
-2.1065179422386193 -4.9970958543532200 8.5069919454718086 249 244 250
-1.2680819910239343 -4.9605388996665507 8.4349281346696294 241 220 203
-0.0027624011143558 -4.5905795225641786 8.4354154628990550 181 158 144
0.1150170315972930 2.1363762443902115 8.7685775233507126 202 187 208
0.8888071255029755 -3.8655030563367849 9.0017956434641295 196 170 155
2.3346413232320189 1.3898204628061490 9.2647649400711476 223 152 124
4.3593000596286000 -0.8283722898487930 14.7450609957738905 185 141 102
0.7201552786948825 4.5391609511796718 9.4359206713468282 94 89 93
0.3656147927223323 0.4757509927835258 8.4838923785935396 196 145 164
-1.1533595753803645 -4.8049660719244160 8.0850515999766195 104 130 117
-0.4256619990969787 2.1102348160148603 9.9413672053967819 93 76 86
1.3754182007281137 4.7988826113613232 8.3814443783723860 102 67 45
2.4608534680064675 4.6264239637434672 9.5460991173325578 65 33 20
-0.3145891351014885 2.7958776884593579 9.5027985720019323 173 162 179
-0.7350175431058494 2.1572871735028638 10.3997422593759996 48 31 37
0.8179577614498913 4.7422212191690667 9.6480820012646866 95 86 91
2.3656932628055816 -3.8070696955524923 9.8280804395432728 190 161 143
0.8333325148589710 4.5289252153364643 9.5309619397841718 22 17 21
3.6699736891702104 1.0256344743744805 12.0286205546697591 147 91 78
0.6884091399608229 4.6243975650604670 9.7076953376551121 83 80 91
0.3116323090136990 0.4445649557672227 8.4177772919694913 211 186 216
-0.9019479716905761 4.1694320011970945 11.4221602798921111 192 152 117
4.4371033960618691 3.6095034246564648 11.2623607719028094 206 164 124
0.2590048433545052 1.0799869913711295 8.5828931852294286 241 196 199
2.1076444032990316 -3.2764286217422747 10.1814195553042026 146 99 81
3.2976318097255390 -2.7004898520774017 11.0918136275614341 218 192 177
0.2241055143286771 -0.1800413328604096 8.3735564330721690 214 178 180
1.4522891112859633 1.2744233994316490 8.7268358362672274 157 83 74
3.6768244316966308 0.4304164218664946 12.4689674766112404 101 38 31
3.2008995289404023 2.6530853311432998 10.2669899000684612 43 25 23
2.1493790981699363 -1.3029813344448069 9.9542550509447505 126 78 68
1.7912029767432580 2.2140221234122439 9.1105507606431644 51 33 31
1.1677624273516398 1.3062722295498748 7.8893942813944760 91 51 49
-2.6823748615589760 1.4921061118140866 1.8987320202424582 0 255 0
-0.6036731485765506 -0.0076984214495074 0.2660107580743543 0 255 0
0.0728829034980993 0.0832671113942208 -0.0303658399279112 0 255 0
0.8810980894923025 0.3414469144165122 -0.1701113332812369 0 255 0
2.9471675090389704 0.3806326275558751 -0.3135758192842758 0 255 0
3.5194737127045146 0.7420587244745223 -0.2822923775394862 0 255 0
3.9388656639168671 1.3488946913385083 -0.2918856959790652 0 255 0
4.2886418424942985 2.1092768167906950 -0.1072977502680197 0 255 0
4.4910447103787545 2.9171632067724551 0.3159857585986716 0 255 0
4.5515485489636660 3.5595365169424875 0.6774080452717435 0 255 0
4.6572441787669216 4.2994787677247084 1.2331837534107577 0 255 0
4.5741378619245641 4.6460990180295605 1.5268847104456613 0 255 0
4.4296813126546066 4.8335620668771808 1.6743975220799074 0 255 0
