ply
format ascii 1.0
element vertex 698
property double x
property double y
property double z
property uchar red
property uchar green
property uchar blue
end_header
-0.3789187786576738 -0.1384565460514369 1.2683315442863901 108 131 147
0.3370345594186470 0.2311294528892562 1.8730376800260919 60 62 48
0.0784049977351440 0.1965798845648984 1.6822278676086995 113 107 85
-0.0678806466908529 -0.1363493950696635 1.7338653916296514 105 124 167
-0.3654695847449032 -0.1365784328086740 1.2769229297930607 115 137 161
0.7117403882143828 0.2988881787513858 1.8100203598186659 137 146 117
-0.1172356773418284 -0.1405791537038840 1.7722447284378453 89 101 127
-0.4589752482535647 -0.1393286092855126 1.2189791534716721 152 143 128
0.0054392210225108 -0.1294312433220906 1.7141676072158001 147 141 127
-0.3327951532866924 -0.1453028015714185 1.5770665606203091 122 125 116
-0.3524769028794933 -0.1360464486473588 1.3057805251583305 146 179 210
0.8254958543675527 0.1550259147165417 1.8533862685154123 206 233 252
0.0990910533837621 -0.1358864063611146 1.9002679086749550 22 52 62
0.0563768576858758 -0.1223583098465884 1.7372358551917002 69 64 58
0.4042640016948877 0.2453995737667052 1.9105615241696148 116 111 115
0.2159992305030291 0.2760028846643217 1.7966320698298954 118 103 108
-0.4695708658156924 -0.1311603071610034 1.2169495449104473 135 136 118
-0.2919501710444877 -0.1276187666356753 1.3225380165151732 107 121 150
-0.0144633909087213 -0.1297552896018134 1.7370775427110301 92 70 49
-0.2418602793239773 -0.1332984209909059 1.6234604928272447 99 100 104
-0.2570433933915603 -0.1384843626115600 1.6205559775391629 137 129 116
0.4220354610252723 -0.1214799134868888 2.1560073546785112 72 95 137
0.0524765283969245 -0.1219739326829177 1.7350285279990187 121 115 101
-0.1816080218239051 0.2305315342396300 1.5800532862990970 116 107 110
-0.3923527053362589 0.1346544121915188 1.2273783289885039 7 14 56
0.5533117766876386 0.1415619328737674 1.7540643505600757 158 147 141
0.3697372894435923 -0.1181159397051537 2.1135873175793058 111 124 132
0.1040315584187937 -0.1179786902576309 1.8981356214134337 136 142 174
0.6208357394565375 -0.0856093554239873 1.8435167467034981 153 146 130
0.2959462118324643 -0.1110645241775596 2.0067624990664052 10 34 44
-0.4207496666395528 -0.1240872509333744 1.2471229341223495 113 98 79
-0.4365016772816736 0.1659731660446881 1.1877925803237601 63 61 38
0.7080436950403318 0.3057628410627786 1.8078184652685663 48 46 25
0.7078786579235288 0.3059664954779756 1.8084460393191091 86 83 66
0.6620693377973345 0.1563721030314088 1.8136244777949462 140 133 117
-0.4017436736549413 -0.1212177387345773 1.2571609430652662 105 87 73
0.0409540741627387 -0.1103244595031361 1.7336029525502141 109 94 73
-0.2853606944483674 0.1016457230288105 1.5489456834421838 75 58 66
0.3084026828213682 0.2983827756810806 1.8436783082394366 114 113 111
0.5386099323769695 0.1478251600563721 1.7288102527745872 190 208 210
-0.4254755555488807 0.0625894248953448 1.2165067800520368 141 122 116
0.3368550352970647 0.1531369190889708 1.8925937969616780 154 158 157
-0.3073425605120874 0.2253396131702253 1.5074454394703691 90 95 89
-0.3345816897562188 0.1827695400675582 1.2403591641147209 72 62 60
0.0112801829976875 0.2206035016429134 1.6513576035767301 49 60 80
0.0125039825181597 -0.0995172665966618 1.7106276911010729 133 125 114
0.1804285595753986 -0.1106337637258955 1.9417541257090016 42 60 74
0.0302981104094523 -0.0965023079698428 1.7333246178715311 135 151 166
0.3010924258300416 -0.0902015647989654 2.0020328755092813 104 116 142
-0.4553685490538996 -0.1097240777505845 1.2360949369720740 109 97 99
-0.4552095326356144 -0.1096596573122754 1.2357673139234493 109 97 99
-0.3320184979441677 -0.1145415460495062 1.2961116217310464 140 117 85
0.1143883343036620 0.1354970223583036 1.7170526315954258 125 112 103
0.6646104884819763 0.2735640655579052 1.7890203854966684 135 127 114
0.2635988126508505 0.1563833266697764 1.8621081099395072 93 120 149
0.5971407190238142 0.3029347398678427 1.7446172082364841 139 129 117
0.2987076980808777 0.3053448874542117 1.8365170114115639 99 92 82
0.2963907930450610 -0.1022223661951693 2.0073941138907845 0 45 59
0.2843000965721132 -0.1023874978254038 2.0007538939628922 84 106 129
0.0852893574135873 0.1347842525749502 1.6986692261310976 142 142 132
0.2071546756345412 0.1511535869123737 1.8194720061132255 85 72 66
-0.4847906734736892 0.0662923899426369 1.1803395922563500 252 255 244
0.1186413588511189 0.2397143238234150 1.6924113518232038 129 129 119
-0.4233607795442151 -0.1039413846173240 1.2528797071703173 78 72 84
0.5795941780749646 0.3054831606154734 1.7356451143104863 83 57 56
-0.3102150575025776 -0.1107396445229160 1.3045845404865224 136 121 90
0.5903610747281292 0.3069269566973477 1.7404290619915190 66 55 37
0.6648885347964149 0.3183304197783203 1.7787209944206663 124 117 101
-0.4194668183221200 -0.1027256687710545 1.2526448734769071 118 112 124
0.0160343998611967 -0.1037166916457007 1.7135807788492827 140 140 130
0.3073358484993391 0.3125550956443926 1.8417860128440084 53 52 48
-0.4441132344867419 -0.1011348887323871 1.2412951057917954 56 66 75
0.3082305131343732 0.1669107487001478 1.8740173737100503 142 127 122
-0.4342865768772706 -0.0998711857670498 1.2466914866527854 68 67 81
-0.4223229682591820 -0.0985107596422641 1.2498977474373425 59 59 85
0.5911981020513992 0.1717744745613889 1.7705580769622866 133 134 120
0.5997622136920782 0.1723188295893855 1.7669615062661290 138 136 123
0.0329666507290872 0.2361361097993586 1.6613948843832691 72 102 126
0.1054708208870934 0.2777876196800091 1.6790099694357208 115 112 103
-0.4144478525489629 -0.0963951509975011 1.2468716486290388 155 154 150
-0.3821461695705883 -0.0914483420600641 1.2729825016137060 112 119 112
-0.0516308353587483 0.2275210404782724 1.5979674705280968 129 124 120
-0.1670921962206489 0.1231607612030996 1.6106263928141518 127 133 119
0.0341536526128063 -0.0748741080544924 1.7309171625163913 57 91 139
0.7074551515677674 0.2927268255881806 1.8094242877593829 121 112 95
0.3081687280987448 0.1735258822022042 1.8715788895387035 144 134 125
-0.0295957892465608 0.1329709803737754 1.6087188608543677 17 34 41
0.5848159186287524 0.1786075654590577 1.7661009629835627 113 89 61
0.3240870301495309 0.1768733572163350 1.8815882065950702 73 62 56
-0.4673708617092340 -0.1040820468475083 1.2215105495256684 128 128 130
0.3910880380098771 0.1855358589535741 1.9144603898851837 51 60 67
-0.0378259656374337 0.1369799374781518 1.6094785894930468 129 120 105
0.6225688064866494 0.1864984480045404 1.7776249301933780 153 158 136
0.1898204871665488 -0.0579406106390765 1.8582545296832107 113 102 84
0.2487923420044679 -0.0562734403638681 1.8912444071892927 133 125 112
-0.3426040330414571 0.1181203528784037 1.5148358807397875 107 93 80
0.5114519676841646 -0.0397223160687210 1.8482739207643883 249 252 231
0.4954160520190067 -0.0587438613263117 1.8608577711431296 149 148 144
0.5530580186198701 0.3150631135696590 1.7159401208857497 125 123 126
0.0981980434899248 0.1516099893599192 1.6754406906246064 126 117 102
-0.2492327680109194 0.1289844102364991 1.5581065425799854 117 110 94
-0.3522839755338018 -0.0922026807085420 1.2881338604931341 125 125 125
0.1453370222498365 -0.0739975903113392 1.8343419248688517 106 96 86
0.3887527311932709 -0.0429878908935050 1.9674709990744161 81 81 71
-0.4563335533507226 -0.0821758790062666 1.2300661125757684 120 100 102
-0.3089523164098828 -0.0725280767896935 1.3100640570677453 94 84 72
0.6964573255061227 -0.0434837821374036 1.8993953777111054 112 133 126
0.1015939816007941 0.2498582039011228 1.6754638372722550 100 96 85
0.3464862182892638 -0.0391311003985411 1.9431568321259662 113 103 94
-0.2634184765423733 -0.0698276593912644 1.5999423875036971 110 122 146
0.3416734020454894 -0.0377775746338878 1.9423006845297350 149 147 135
-0.4395920994669650 0.1607997397828102 1.1795715789518686 63 64 69
-0.1245174952452330 -0.0587923977585215 1.6795414762223795 105 112 118
-0.1497664655281563 0.1456927739983788 1.6064288486169982 117 118 102
0.3289923243569753 0.3403438533588899 1.8498917258625271 69 65 62
-0.1427338774166554 0.1484803432463780 1.6160002485471219 131 126 120
0.1119413335009278 0.1531974860351586 1.6810047016267424 122 114 103
0.1169532467034640 0.1536163958621821 1.6849815714299592 117 107 95
0.1966908713723331 0.1700619289751643 1.8074259603087603 125 116 101
0.6647297813588376 0.2973190944359771 1.7837981898810875 130 115 96
-0.2987573097996074 0.2198534798993015 1.5173116020778701 104 93 97
-0.3098376288919521 0.1363423111998797 1.5260565510874318 119 117 105
-0.2914318622709865 0.0988605464906961 1.2790625564429856 146 124 100
-0.4364495344373391 -0.0672004404854442 1.2382691910974974 94 93 88
-0.3349618236145308 0.1782600779193655 1.2421436126843002 73 59 56
-0.1724540829947192 0.1366742892316149 1.6023141702705990 90 78 64
-0.3923228997621141 -0.0617514652244306 1.2669773466546730 115 103 81
-0.1069529880190918 0.1444896635783706 1.6390498290835582 71 64 46
-0.3737385660765127 -0.0592264407227747 1.2792184980317891 104 97 78
0.2845830020952660 0.1984574141664725 1.8518775636667419 107 96 90
0.8437482899309249 0.3123909842339794 1.7800007331903271 11 20 15
-0.2975046472947718 0.1283311157273510 1.5377326791455566 80 67 58
0.5787783399336812 -0.0033583819778470 1.7922575092165196 114 94 67
-0.1813237549215573 0.1514317782879871 1.5982799747874687 53 52 48
0.7072585106703563 0.3100663496322550 1.8060688473686848 123 117 105
-0.3253886469282709 0.1272965189694966 1.5193709872057943 123 124 108
0.5247234552826328 0.1889124226294956 1.7465773618321594 129 134 127
-0.3856949096755182 0.1042514092735058 1.2253384937579903 145 132 115
-0.4480264631390085 -0.0590042936171177 1.2295939286539539 77 79 92
-0.4401427889473983 -0.0584134315306092 1.2345077866543690 50 65 62
0.6547118007943717 -0.0318660315680633 1.8529740285757565 165 160 157
0.6364652051144736 0.0037981961911447 1.8223372801048279 110 90 65
-0.4357526172029508 0.1732584854757189 1.1854732327696116 67 67 41
0.6022485770376298 0.1971845743453740 1.7656939779853791 141 134 118
0.6555183949362332 0.0062932863769575 1.8319634272630636 109 97 75
0.2288647346013974 0.2941541612087210 1.8007211159386241 75 68 60
0.3021121229407547 0.2084944000960515 1.8577999523797639 105 95 93
0.7041185257312337 0.0127248869046151 1.8598331732176510 103 85 63
-0.3365925098828826 0.1359805516143512 1.5041557643776047 123 111 97
0.0722177502534585 0.1768882263869583 1.6677832006069049 135 134 130
0.6643934714113715 0.2211835943099492 1.8014404213434154 137 122 101
0.3365247293552867 -0.0387551107838604 1.9455115255760302 70 74 73
0.0490966926718819 -0.0216446164041252 1.7054425306085874 139 123 89
0.0121547976988396 0.3060703785404136 1.6353218593973851 129 135 133
0.7083753787270367 0.2264846109973032 1.8255310905136783 95 82 92
-0.2266241554344208 0.1505372063796378 1.5708104000320111 128 117 97
0.6648059051037298 0.3229953529657727 1.7791809467180006 120 107 88
-0.3293881030732997 -0.0447166429220449 1.2938598802272245 81 72 77
0.6836241998992958 0.3267588491553751 1.7910734029128028 111 93 91
-0.1885012666150158 -0.0347228557181923 1.6336839173426767 137 122 103
0.0692182669823734 -0.0194506248709610 1.7156085026168071 137 116 85
-0.4090682099367968 0.1118164913111262 1.2224876764627493 107 97 88
0.3118936068028469 0.3204415021524240 1.8429244599119099 70 65 71
0.5254809724143777 -0.0235469019923336 1.7612134226743770 255 252 255
0.6570840648309846 0.0143346381489267 1.8419448399315372 154 132 93
0.3284532360187197 0.3644658994006943 1.8428376103284343 42 40 41
-0.3320592338853677 0.2274797334751237 1.2317799889185121 109 84 77
-0.4375748249605051 0.1855420528506003 1.1793686529865266 111 84 75
-0.3289008169164818 0.2282425031591747 1.2348564448585193 103 84 77
0.0989865020571702 -0.0155974675644676 1.7302547271821334 142 119 85
0.6641216291898613 0.2256911788246981 1.8004000383625047 155 147 128
-0.2646986383557624 -0.0342971951128940 1.5879862506188904 143 136 128
-0.0631848445329027 0.1703970651203115 1.6054733776029462 115 116 108
0.0016377531425098 0.1759597810513730 1.6256689006804748 105 87 73
0.3081030050722715 0.3653872307888324 1.8292970637417922 111 107 108
-0.0381142238828277 -0.0498006675419994 1.6522778632188351 87 100 117
0.0925600590880433 0.1859156767319320 1.6726088397990337 118 115 110
-0.1266977739377082 -0.2892054657542595 1.8793964332599911 31 53 66
-0.1137783723619982 -0.0543269638904020 1.6801974287633894 11 47 69
0.3290870708924932 0.2207867008134093 1.8738719015871570 72 63 54
-0.4236261706483982 0.1092685394582817 1.2055384698546816 84 75 78
-0.0153681124768612 -0.0142331667094049 1.6717456605780054 133 125 106
-0.2761194406438939 -0.0293114693646604 1.5820347775224091 145 139 143
0.1083503803765105 0.3279981098888645 1.6698798495952263 97 94 87
0.3113090758472769 0.3677433004761549 1.8315037353147574 52 55 60
-0.3506495204938264 -0.0319731528020306 1.5407709576507047 87 89 86
0.2517759752303656 -0.2767285031443268 2.1414462541392116 103 93 130
0.0590686926028409 -0.0417387148988047 1.7225774756726140 72 78 92
0.0300224985796661 0.1840253922734319 1.6443324485353339 93 83 73
0.0715353800916594 0.1897980299226589 1.6788171898600655 119 97 73
-0.4233899467388874 -0.0385250467999021 1.2382042474135240 85 72 82
0.0548758265806761 -0.2545626933553438 1.9613921625541193 127 132 128
0.4041011125519671 0.0169649842799408 1.9463903728594543 48 65 83
-0.1771025205389896 -0.2598526763806057 1.8564168116938862 76 81 100
-0.4528243923914055 0.1937495861515144 1.1705822946379343 123 91 76
0.5530410829244947 0.3563500493359701 1.7075222499986173 135 138 147
0.5938340926211859 0.3633021305536650 1.7277232917588481 127 127 125
-0.3452193812484358 0.1481027080087197 1.4999590374863745 59 61 47
0.1285578258251211 0.1967512924865001 1.7070726470606783 140 138 125
-0.3455909609438964 0.1195633669426686 1.2487596798437255 58 46 34
0.3020221266398222 0.2233580773367990 1.8511344176195887 129 132 115
-0.4612558810034323 -0.2216485536220638 1.2978050044081988 127 161 162
-0.4679747296098347 -0.2210868209507146 1.2908986248840666 249 255 255
0.2294869148720891 0.0087936554437613 1.8542390358164011 87 76 56
-0.3892495631811954 -0.0600782939137606 1.2732823472965684 108 101 91
-0.2081976586127813 0.1703369003148627 1.5704101233427938 145 146 141
0.0177705630875564 -0.0045842772861541 1.6876975225171265 145 136 119
0.6380593953049547 0.2251702362802405 1.7819826622695205 104 89 66
-0.2017145524183270 -0.0168188311746940 1.6236027935208988 63 64 59
0.5566888631536575 0.3585951104681712 1.7074797528047334 125 133 122
-0.3927293591910127 -0.2114670946867207 1.2948255587824786 143 144 138
0.3672522744517161 0.3836324322007419 1.8692996698900950 67 71 100
0.7128290296069001 0.0373353220625679 1.8670960075138872 146 142 117
-0.1889746123943987 -0.0477420144929924 1.6212585017115428 134 121 102
-0.3023276620977960 0.1551024224698733 1.5290527550837920 60 56 45
-0.3419997179034486 -0.0241257800770112 1.5397491511984633 72 64 51
0.0332552614306492 0.1812050168262470 1.6472404034841348 49 50 36
-0.1027953348273310 0.2847804422399667 1.6134975376817982 68 62 64
0.0478079970209430 0.1832629023984639 1.6560845157835511 74 71 54
-0.2252611135824156 -0.0473961266322075 1.6036432468882822 73 65 52
-0.0533851521531772 0.3121853211798732 1.5787228277173038 88 91 96
-0.4081065489190202 0.2047642979144921 1.1919864052890297 121 108 89
-0.0432445205959586 -0.0029462269656117 1.6522518056742688 115 101 90
0.3675172932733588 0.3853820739552344 1.8605413988200243 90 97 107
-0.1448510683108216 -0.0413313784983351 1.6452486957216486 134 127 108
0.1157498983602543 0.2054807604542974 1.7024382704713694 120 115 111
0.2776802221049239 0.0230370174974228 1.8794006869219497 134 113 94
0.1933729967287056 -0.0214912266832824 1.8521817120568600 160 162 161
-0.1022965101907158 0.1798651568070928 1.6384207952966978 64 62 47
0.0453002790181786 -0.2302080486049924 1.9502931189743653 122 117 113
-0.0412348213373916 0.1888213521656580 1.6162282247635011 134 136 123
-0.4450393728790326 0.1154341563699366 1.1906217165223867 138 128 129
0.0480455256876541 0.1983496851941177 1.6636328486668404 155 157 156
0.0571784882669054 0.1907900350083541 1.6732137516955330 132 121 91
-0.1717507461369367 -0.0033644144568696 1.6347830159267267 121 100 83
0.2075029559030065 0.2255788931808165 1.8038124301837934 81 77 76
-0.2094597127581064 -0.0425979600706145 1.6137575347254114 122 106 91
0.1201819902995919 0.0157055374635168 1.7414071729940759 95 86 79
0.2290537714429808 0.2278922924315007 1.8155856231125171 65 66 61
-0.0378574744951164 -0.0331096788400355 1.6534641374021544 122 99 83
0.6888896283556497 0.2499312477963822 1.8098292214259744 71 59 47
-0.0391004453645241 -0.2199795901549006 1.8427056397446022 53 68 91
0.3322981000209097 -0.0104624480973530 1.9395368652283460 87 103 128
0.6412691870762155 0.3794108187328784 1.7454845219115001 60 64 76
0.3650806140862792 0.3908887458168081 1.8545341011871364 104 112 101
0.1211569172358101 -0.2242731457153375 2.0190925462104139 25 50 70
0.3516169620501778 0.3883545528711444 1.8455541997737355 83 78 72
0.1062358608064781 0.3123868802021543 1.6706726208360783 111 104 96
0.6791994046148427 0.0096553472014902 1.8431726758998075 144 134 99
0.6645735621144041 0.0531900840829995 1.8382360659817301 150 142 119
-0.2493329003306091 -0.0410010024354677 1.5993915481395931 144 131 114
-0.1368137152868648 -0.0337980848104117 1.6535114610453332 113 92 71
0.1546440441899685 0.0258456048663867 1.8144447474553584 149 130 98
0.3285476955949463 0.3553241406195650 1.8441738593952721 54 54 56
0.0205180937566981 -0.0252539473666620 1.6882753998768141 145 115 89
0.3080216488252117 -0.2290086678621124 2.2412571447305774 255 255 253
-0.2675352187464978 0.1797469191379319 1.5414018874971354 127 124 115
-0.3605405805898787 -0.1912141315241990 1.3057346483549384 90 85 79
0.4828372022815394 0.3838587149587842 1.7795207873284922 83 88 94
0.2133658918010952 0.2186210327134575 1.8088727107512437 60 52 39
-0.3238235321250134 0.3001377090347017 1.4863612232781338 87 91 103
0.2462873033424770 0.2387461589788218 1.8214654389991043 131 132 126
0.2483334192175529 0.3773239552155557 1.7902503384069899 75 72 81
0.3543037459551545 0.0425441075136900 1.9166734093047175 122 112 100
0.2464716838923030 0.2385905328598566 1.8201436744379058 131 132 126
-0.1816146191625030 0.2920054071244799 1.5671426098702388 62 56 60
-0.3701645017260529 -0.1871189650859267 1.3032614506342926 55 55 63
0.2036515997198110 0.2208639881747023 1.7991048669094396 143 149 137
0.3294664988045027 0.0441067023938297 1.9136317134691931 91 70 67
0.1063553194041761 -0.0173061025140104 1.7310606895504344 138 126 104
0.4351426529333978 -0.2056428229640399 2.1843442789837479 99 86 158
0.5999551495618236 0.2508384809583945 1.7591289148984133 129 126 107
0.3094987889200699 -0.2149993217899324 2.2358358325713588 255 255 251
0.2356916486050150 -0.0075285307064074 1.8732616367574415 111 133 144
-0.2022197671154259 0.1965196955359100 1.5763099334632293 54 53 49
-0.2020569747763689 -0.2024277005807729 1.7805556277593777 59 65 91
0.1062258943885815 0.3206277088557950 1.6680489637109175 106 101 97
-0.2830999927685346 -0.0377224717360535 1.5796865360642818 85 66 70
0.0992636430398483 0.0309399171439806 1.7267534776280866 146 133 125
0.0348364819192625 0.3160589011109306 1.6455438690803943 107 121 122
-0.3187061292121018 -0.0046428780406727 1.2793784058796196 125 103 82
-0.4323824218365296 -0.1729584691801339 1.2777611420642745 74 95 126
-0.0230342025824330 0.3051104871431552 1.5927201210618176 106 109 118
-0.3433774823846100 -0.0407129077139915 1.2832831254132750 153 157 134
-0.4237014107153148 -0.0094483849690695 1.2326315082260089 81 69 83
0.0851067858601045 -0.0119633203838594 1.7291714858972727 143 122 91
0.0640757478611509 0.0322582387484576 1.7093237686819602 103 100 91
0.5086328450581288 0.0617118218711402 1.8003729390581487 147 147 123
0.2137334091458854 -0.1736034118630800 2.0323932764965136 42 61 78
-0.4081896577153671 0.2433376401367584 1.1819744559943401 135 109 92
-0.4361293514389373 0.1417961242547785 1.1931817833133167 48 52 35
-0.1807453112662473 0.0221199520719882 1.6271167059065801 100 85 80
-0.4075361018982977 -0.0423339523549807 1.2584403850868928 105 126 131
-0.2131766356000456 0.1821669965446508 1.5700542313169075 121 123 118
0.4184558533798500 0.4114374816855996 1.8720726510922439 50 58 69
0.2798290706387735 0.0553304684403320 1.8801758541412239 120 118 93
0.2932180609035679 0.0570708512950824 1.8865635486136354 131 115 99
-0.3412543268575569 -0.0309984846698479 1.5429924946996338 83 83 83
-0.3453662254265876 -0.1548899378995094 1.3197219852261455 68 86 108
0.0492684698742285 -0.1521061135693107 1.7383674206633277 148 140 119
0.1604252143707320 0.0016011843810731 1.8127386257774301 177 156 135
-0.1806831075176382 0.3012103259701464 1.5647683518805613 55 64 61
0.3432692251823465 0.2505939458460141 1.8729941147995532 119 119 111
0.1445668773945812 0.0015966827804252 1.8076925977963632 134 108 85
0.5716009987843166 0.3591995889362504 1.7165328892818799 115 112 107
0.0337151848960166 0.2238810731957244 1.6630754705180086 88 99 119
-0.3173131959327314 -0.1717969894869196 1.6687414606508220 29 50 71
0.1148724926810547 0.0482146052090505 1.7340462936423611 125 115 105
-0.4243022861900100 0.1339640720357495 1.2003436886081857 87 71 72
-0.0115773364190935 0.0396433967264596 1.6660806073398216 144 136 113
-0.4730364599630572 -0.1567872987355448 1.2364440990416885 126 157 159
-0.2808157492035518 0.1819053259660558 1.5343484746164502 78 69 70
0.6272714060474620 0.3697181222146196 1.7448944693108728 87 82 63
-0.3348053634019408 -0.1642686405123961 1.5736970614028527 30 46 61
0.5403417745214244 -0.1281613373220122 1.8992526174918110 243 243 245
0.5161413926251234 0.0232790266391541 1.7978498975177077 201 165 139
-0.3337016884779657 -0.1684531778722271 1.6567365404008956 76 86 111
-0.1502486997644296 0.3361363116593025 1.5751996862352755 92 97 103
-0.4175310797806379 -0.1498073091476956 1.2673832016562434 55 73 85
-0.4191011356731493 -0.1498463217448991 1.2696016050287171 55 73 85
-0.2334371952897076 -0.0179584410991022 1.6045465480075500 103 100 95
-0.2593322901465985 0.3226812941575329 1.5156134323455686 83 82 88
-0.3083855069193929 0.2408601408756323 1.2419278437933583 139 130 121
0.2426256961168750 0.0669782283167631 1.8568889252358900 170 173 166
0.3488028705176485 0.3945440033403840 1.7659861796386567 104 102 113
0.3125461531180233 0.0738307250365395 1.8971507285096605 103 82 79
0.3657437593949981 0.0219838491742272 1.9286760774231471 128 110 96
0.6606316232768629 0.3796683625476583 1.7619286823738676 103 98 92
-0.2372694439340144 0.3261781880474754 1.5186624607835326 54 62 75
-0.2272843181650103 -0.1471805617450522 1.6327399313455631 134 124 99
0.1031618530469809 0.3543576062131814 1.6168033646067752 42 53 71
0.6936479533015584 0.0383765691656232 1.8591363518691322 75 65 56
0.1410063604595900 0.0088650118544206 1.8107549454343015 134 113 86
-0.3615500384812620 -0.1367793342428703 1.2950616581116494 130 149 163
0.0166629968249818 0.0010403117400760 1.6866616419018277 103 98 95
-0.3233124291611679 -0.1495097292482713 1.5775465903977981 131 125 111
0.0470532684257039 0.3435521231739099 1.5678020068429019 47 59 73
0.2455689459561853 0.0177056539333258 1.8668630194065319 140 116 92
0.0193181315842987 0.3411668314903730 1.5567575431069647 49 62 79
-0.3499624854940176 -0.0205862862454691 1.5351718229024618 133 120 101
-0.0325563502130812 0.0533004428556358 1.6487935015351161 134 124 112
-0.1009696126765975 -0.0038812528793217 1.6746702673602007 54 51 42
-0.0475831202174300 0.0527709984496669 1.6420406496923026 150 141 132
-0.3027267663279536 0.2486433741424056 1.2484005009580161 150 146 137
0.4681697416743938 0.2686610685176133 1.8275309891416227 106 104 109
0.2258907970566966 0.3743965051048763 1.7795933719377155 103 112 119
-0.3058311752983104 0.3024387529099323 1.4942710752263777 107 106 114
0.6508390549160423 0.2741186453739323 1.7858283361047853 93 91 105
-0.3458425624685544 -0.1347726490253695 1.5676014237709699 126 111 90
-0.4614298832516867 0.2317703491822954 1.1558648676259713 143 124 110
0.1542292927029290 0.3652003547333982 1.7409460685108085 88 84 81
-0.3461838332062083 -0.1347891184592007 1.5683436868256677 126 111 90
0.6407801912683647 0.0455480200232318 1.8234653347857326 156 150 126
0.6302715192481366 -0.0866203721033914 1.8478750294252249 156 153 144
-0.4110032494633954 0.2399434683659542 1.1808114170390975 161 142 110
-0.2026687810530249 0.3188778201489381 1.5479561320923279 93 100 110
-0.4248092310167279 0.0223053867363124 1.2248160439831342 146 150 151
-0.0261133667173213 0.2241160473126832 1.6118426252668148 88 92 95
-0.0336557693593735 -0.1195025195728764 1.7437818283262247 44 60 76
-0.3736317984528054 -0.1217516581001113 1.2711076630536655 150 145 123
0.5609419643018061 -0.0874302729088579 1.8487443117328903 57 64 90
-0.2610102714876850 0.3136611430156995 1.5200910648268855 78 73 69
-0.3618022803152954 -0.1144967421188483 1.2824707755283917 152 124 100
-0.4098609323529522 0.0262800650789836 1.2294161818107012 139 138 118
-0.2772624022983525 0.3114370973597055 1.5065835508140943 95 99 98
-0.1903997929886095 0.3228491616264098 1.5531669407864195 124 140 153
-0.3522281917351031 0.1621114277491252 1.2353189490917436 152 144 123
-0.4276719943779643 -0.1162638998781684 1.2528166538407282 102 77 83
-0.3574016835615479 0.0333335573578369 1.2582033505867325 153 149 137
-0.1374666638839683 0.3537767766552085 1.5759594605052405 71 78 94
0.2121577632256532 0.2637324235912916 1.7987708961478910 75 70 66
0.5910432075244465 0.1103626021930611 1.7835972784190401 105 83 70
0.5977989149412807 -0.0737168590293440 1.8356777601469116 255 255 236
-0.3077385504853601 0.1685404214205322 1.2583871815950698 150 137 120
0.6172397890930148 -0.0719419642336592 1.8396722532631229 150 135 104
-0.3323468340971653 0.0382380682211965 1.2741173781957889 113 94 87
-0.4243266287428902 0.1581687606794885 1.1951173749269588 117 89 86
-0.4243095593996590 0.1582145987012997 1.1950551912577236 117 89 86
-0.4492277619244451 -0.1112369383887553 1.2410778470905712 84 82 83
0.0535404288622026 0.3472368175308174 1.5124492172600927 49 61 75
0.5953560457704102 -0.0664465400384033 1.8330064941253494 255 255 230
-0.1814139976732854 0.3312218363429816 1.5553751665269826 92 98 112
-0.2058656301098474 0.0687542211170298 1.6019441909653043 143 139 130
0.3033781236677461 0.2820089020569230 1.8451138070386222 116 117 109
-0.4652682360781432 0.1551588985117938 1.1694232100047715 151 151 123
-0.1628986813106121 -0.1023468115058535 1.6680205417898299 114 105 90
-0.1523099462927265 0.3422157180835045 1.4909777020244841 77 90 99
0.7235707137911259 0.4400669325285222 1.7791560983045145 79 83 86
-0.4646543264545208 -0.1076188717554210 1.2286025353504206 129 131 118
0.4249806348423702 0.2982932456881878 1.9013788461782610 47 43 60
0.0308451487649013 -0.0888269990066471 1.7309867569518929 114 136 157
0.0308743301297053 -0.0887645115724741 1.7308334931133298 114 136 157
0.0694788208707768 0.3428146120389665 1.5668740764580036 39 52 68
0.0640189613480437 0.3426039361667520 1.5646936863760355 55 57 78
-0.3239773618890002 0.1713392100056574 1.2434522166309994 145 123 86
0.0602249131795601 -0.0849580198451149 1.7337134411847812 121 114 106
0.4630647584438979 -0.0673090362933681 1.9124153970341995 138 141 134
-0.2868915978296419 0.2671245497503671 1.2407969724278360 87 81 95
-0.4602659272292856 0.0395949646709546 1.1994181275538289 75 84 93
0.6102326470805375 -0.0563595488124590 1.8339511230461818 145 140 134
-0.1671028672392664 0.2299762022297510 1.5880743572358174 121 122 114
-0.3445158678070865 0.2607087238302971 1.2122722379176980 107 96 100
0.6456973455063318 0.2932235800822803 1.7835635328899553 94 119 116
0.1074824325544381 0.2536613852067717 1.6732097156082928 123 117 95
0.5957468214233457 0.2877556533542964 1.7467159449941152 130 119 97
-0.3475122265378801 -0.0925049287738313 1.2914944323753590 144 147 126
-0.2164070612473539 0.3350715960648686 1.5314906361480041 50 55 59
0.3898295177737873 0.3073139885075209 1.8927861418187535 77 74 83
-0.4619555153718181 0.1665589000986850 1.1713368222977010 159 148 116
0.1539615678088925 -0.0666392186838486 1.8414174261795626 95 92 87
-0.3451974519802368 0.1807650769499680 1.2356865862469635 154 148 122
-0.4024568491058919 0.0534334699005062 1.2278423323102861 128 106 83
-0.4757154981298342 0.2504618587480569 1.1408009811913333 161 143 103
-0.2033206866097545 0.0912718300118199 1.6003466683778451 67 67 57
-0.3794509362651280 -0.0837079187359847 1.2705045551983973 108 86 72
0.3887810739795750 0.4318843608198675 1.8600330779432288 82 88 100
0.6049857959026772 0.1462680231127858 1.7814924394317639 151 145 123
0.2431646329164905 0.1347197745597262 1.8442635374174969 143 135 124
-0.4234851958564487 -0.0850838686229843 1.2484180402041132 71 74 67
0.2545103693061196 -0.0548005987150343 1.8912940561349114 90 87 82
0.4076354588470349 0.1507337079484536 1.9336078581874387 73 61 65
-0.2024615414442600 0.2411089929595517 1.5668102073616712 66 62 59
-0.0094978159751290 -0.0653091081900850 1.6922681713722734 111 101 100
0.3556093644297366 -0.0480403701156609 1.9512179873676532 135 118 100
0.2076146046110021 0.2929749862107551 1.7893322345310048 67 61 61
-0.2661518449416131 0.0933744875318045 1.5602230922194589 132 126 110
0.3033674713217002 0.3066497552427982 1.8395033255827384 117 111 99
0.4664012133858355 0.1530540445596359 1.8582248751989139 125 126 118
0.3336277239225857 0.3114496974265237 1.8572504784082076 110 104 92
0.2884121329410275 -0.0461872723551229 1.9128508547467562 117 104 95
-0.4620539683447871 0.1751257736994131 1.1694688035161422 153 142 112
0.2029924756545004 0.2950383687930556 1.7850927163008175 115 112 103
0.0853066607698869 0.3527023567574309 1.5141706924271046 39 48 65
-0.3026821510238567 0.2358977926628321 1.5111613190207533 63 55 52
0.4659321606418795 0.1585050697121423 1.8578707297207320 124 123 118
-0.2586937208353087 0.3485666219929388 1.5092566219974433 18 39 56
0.5605029829065976 -0.0183290182075980 1.7782192215939199 60 67 77
0.5712391124853706 -0.0174493677771450 1.7841203581737080 89 96 115
0.0737697944833695 0.1262687015405384 1.6954769553504618 143 138 132
0.1051155545494187 0.3597025284965509 1.5213908697346759 22 40 50
0.2567314850602136 0.1496740574075149 1.8612544460900473 105 122 140
-0.0444628391826263 -0.0482389688187399 1.6447912659336310 95 106 124
-0.3616470669107040 0.3391627354258949 1.4513152092752222 76 86 96
-0.1019640801887507 0.1162712010471419 1.6501512623892431 112 104 102
0.1016553041345441 0.1311356470513232 1.7090841067311571 147 146 142
-0.3518750871504033 0.0732411118525149 1.2558978835887968 119 110 105
0.2893801075714583 0.3161325612003734 1.8328230824358021 77 77 79
-0.1983949030720896 0.2556659187394003 1.5661287211103807 55 57 54
-0.4578256875382156 0.2709997441051258 1.1495878260212158 176 158 146
0.4441270639349953 0.4519217976339568 1.8175880384911076 36 42 64
0.5124739179722512 0.1589615035557612 1.7594042894826691 16 29 38
0.0737154884075976 -0.0375607106541287 1.7151159165789915 115 123 144
-0.1630701993094874 0.3564211490371734 1.4863746284002466 27 49 62
-0.2819751109075856 0.2500146663820587 1.5191984217589285 113 104 107
0.6736812523521475 -0.0040772638758738 1.8411411234234707 76 86 96
0.6951965794716005 -0.0014745492204753 1.8534698235309977 78 86 99
0.6514803456564766 0.3307240043078955 1.7736187025692089 89 90 95
-0.3628647280068344 -0.0578497369418601 1.2748379476851892 68 62 66
0.2180779681367551 0.1540859600751496 1.8258573068428554 85 66 59
0.5495024016920993 -0.0064626259596543 1.7756186345820200 113 91 67
0.5576263972778348 0.1636485541064323 1.7449585077786658 71 76 69
0.1481283801085817 0.3670107848805872 1.4846577182910778 46 49 68
-0.3474707451145492 -0.0560340706064334 1.5396166253857986 122 104 80
0.5690427790818572 -0.0041151013067653 1.7865403355405622 108 80 56
-0.1541342095872177 0.3628644221676537 1.4830666666990124 28 39 57
-0.4439379557726819 -0.0604060242982819 1.2318154987604710 80 74 78
-0.2516478107721602 0.3552157780787683 1.4496588458569213 24 35 57
-0.4606272069509365 0.1906367654199806 1.1641711099175245 152 149 114
-0.4615485679664850 0.1906516538428460 1.1656854925107643 152 149 114
0.5983207987276069 -0.0010459139615638 1.8019263363459701 105 84 53
0.2252387824830353 0.1595429243703622 1.8284582383817003 133 115 111
0.6456153159563814 0.3370271882567475 1.7738903600792515 92 107 112
0.4070798976876671 -0.0084067527382709 1.9861190141198846 35 56 75
-0.4779760502868285 0.2801862132276385 1.1317823182344187 172 162 135
-0.2868806300814893 0.1110273440528746 1.5379663052897690 136 137 129
0.3120500285369741 0.1696601564534624 1.8767505377602416 100 78 81
-0.3077161769198723 0.2098001198963894 1.2487678040711983 144 137 129
0.3033273903067603 0.3319713884145422 1.8336672318959359 110 108 109
0.1026802814491668 -0.0229939214949133 1.7278105994326778 153 142 114
-0.4237729332709444 -0.0538194289592196 1.2419767370310200 87 76 93
0.2031561174876768 0.3191045490920578 1.7796887491570346 112 114 109
-0.0501369053652650 -0.0299857045956471 1.6525213828587402 139 125 99
-0.4603801721243923 -0.0552979066800174 1.2204189218735377 141 158 140
0.2829160500274311 -0.0086767741158821 1.9053125631994032 118 123 127
-0.2506801757123862 0.1225277177909856 1.5567606635871591 136 139 132
-0.2841687124014562 -0.0417397500210062 1.5802221905480751 78 68 66
0.1869361839175302 0.3825613888641459 1.5045559159522177 40 54 57
0.7141190707789081 0.0146018771773035 1.8649094291649466 95 78 62
0.1025282987201201 0.2985110914783566 1.6649586549213389 92 91 86
-0.2301361571717901 0.1255035744627661 1.5733679970894927 124 125 120
-0.2767234110257263 0.2627169145103751 1.5189744359333486 102 100 101
0.1597437924666668 0.3717037902590108 1.4600141312915085 45 61 77
-0.0354629714662095 -0.0236389601431890 1.6599879548137633 124 115 98
-0.4620383426447803 0.1994892783076631 1.1636920405543545 151 138 106
-0.4286192009407626 -0.0489548305092496 1.2384758162055027 61 51 60
-0.5842763306100903 0.3046664854413080 1.1963355163021032 102 79 48
-0.3066312220542891 0.3128560948331962 1.2227857372343007 65 83 97
-0.4889751927717258 0.2929958986506578 1.1181992748953296 110 78 81
0.0242617969473809 -0.0151566945505356 1.6902398197713513 154 143 123
0.0244765480163694 -0.0151643904451416 1.6898591844230884 154 143 123
0.1284612846977101 -0.0094165915438631 1.7499407201169168 141 120 89
0.6537702032157136 0.0217955127223022 1.8374126667874011 156 148 125
-0.3275963043083108 -0.0340376820969350 1.5555144944968533 130 119 97
0.0095472179215579 0.3011115396610312 1.6326928828926210 88 72 82
0.2946048281678504 0.3489125658649072 1.8249508367772675 103 100 95
-0.0032498850080033 -0.0105532796782816 1.6814541929430222 145 140 120
0.3782976788148250 0.0224412912713036 1.9315650838266520 120 107 91
0.2031678708159435 0.3427154792351638 1.7745660801066605 106 108 107
0.3030518435967664 0.3574118343999800 1.8283154815423028 105 104 102
-0.4069792378400657 -0.0302827761316720 1.2674390394071697 67 93 120
-0.4233153126406428 -0.0296590336887536 1.2360726819835977 64 63 71
-0.4598403243822387 -0.0315151477184389 1.2145455988457721 152 165 145
0.2944943717096319 0.3577035102276765 1.8236667674053413 106 98 95
-0.4250589727851071 0.2167720051940279 1.1824473086714107 86 68 66
-0.3568253591609886 -0.0152075445897822 1.5335083640050347 117 105 91
0.2283062499169931 0.3499384069254302 1.7885971697912260 66 56 54
0.5537648193586328 0.0399541468952870 1.7751793549327097 109 95 95
-0.4284495778523257 -0.0240229217190520 1.2329144775723420 88 75 92
0.5018556405273298 0.0431444552597597 1.8223011395593955 135 132 117
-0.4603822373800692 -0.0232122348756134 1.2134008381178065 148 158 133
0.2584640337926408 0.0333027386149995 1.8664313188294654 134 126 103
-0.4281520140862976 -0.0199460990060047 1.2318105525637302 68 59 80
-0.3421034814963022 -0.0073958850559229 1.5373768514853043 86 84 72
0.6195161846245612 0.3687835196859197 1.7409045416424878 86 77 60
-0.4244187026400402 -0.0186045690701779 1.2334972850995323 150 145 139
-0.2023494201810017 0.3033176095476385 1.5527884060176951 117 127 128
-0.2416680788096059 0.0039837420960210 1.5928048896292035 102 91 85
-0.1165168738081937 0.0135021297116033 1.6655788480198646 119 112 96
0.0307910799947696 0.0213990609663533 1.6913157519939097 136 128 115
-0.0467268326959254 0.0165746517259686 1.6501648622677647 157 153 141
0.3154927914229944 0.3792494909189237 1.8337492235091790 99 111 111
-0.4234522827443193 -0.0141674202247636 1.2331155170988639 90 76 89
0.4776850878587024 0.0536258499038179 1.8624316406290387 121 121 109
0.6048171796375968 0.0628925720643422 1.8008275766016464 157 143 116
0.3124583815454597 0.0516941573229343 1.8958629180712014 131 126 107
0.4660149596379318 0.0586102296001078 1.8788262356803842 125 117 114
-0.3419343517843582 0.0062160295159617 1.5490196098742754 56 77 98
-0.4664882511015216 0.2316473810462051 1.1549412095951188 172 157 150
0.6638613061688803 0.0745706908804597 1.8327208643244750 157 150 131
-0.3578427406969013 0.2466702097662009 1.2087089578360402 139 124 103
-0.0292921148999041 0.0326926614128688 1.6570385576211162 151 144 126
0.1937453251130084 0.0518205947461750 1.8314972116641985 120 109 91
0.1941398136612859 0.3766169749808702 1.7590389958702155 87 91 102
-0.1422441970062467 0.3330459031312969 1.5810635009975704 75 78 71
0.2424054379784298 0.3712570395672266 1.7097804191955921 39 42 59
-0.3339397614978962 0.3081181891816169 1.4737335073970281 100 102 99
0.1959842346159777 0.0580497647869481 1.8319668019653268 144 134 124
-0.4150606444139709 0.2462879330789279 1.1793631420143205 146 130 104
0.3961064835252602 0.0770148078478960 1.9415807913956860 108 95 89
-0.4179604723387115 0.2491180142711057 1.1768016962939285 76 76 78
-0.3112641411779571 0.2625381764100638 1.2362105734856959 41 53 65
-0.3745925020761467 0.2540645858411518 1.1953960593531625 77 79 91
0.3251690172146628 0.0759451330721830 1.9037004895116989 108 90 80
0.8279828183680351 0.1040244606335483 1.8638860854483459 70 41 181
0.7257836051470881 0.1003510425083426 1.8611702759502784 108 109 103
-0.3369713539901832 0.3202683524769049 1.4638457383768808 48 53 56
-0.1347106500881212 0.0489768613827093 1.6564874424589839 83 95 117
0.3079974087767760 0.0836926729337951 1.8917899442861545 100 85 80
-0.2433125431793396 0.0450084719271034 1.6007044357892177 51 75 101
0.6053647913714491 0.1002429251965693 1.7937529400651364 161 149 133
0.2511961876287254 0.4026791914115600 1.7081119326161014 94 97 112
-0.1067290728378534 0.0596870418723983 1.6607943820907214 127 120 102
-0.2152033846888000 0.3551448703278556 1.5315586589621455 53 62 77
0.4256739643450663 0.1038433632852438 1.9446324020250063 59 56 67
-0.1652670384207352 0.3506750579153369 1.4812694346690860 81 89 100
-0.0469829875228317 0.0694095237797639 1.6379658888282143 155 150 144
-0.3415900841884618 0.0350189354994429 1.2696251828397513 78 76 63
0.4919314971384321 0.4335669390072083 1.7325456898649108 31 44 60
-0.4007289872827555 0.2922753859067101 1.1888440940576155 41 39 50
-0.3920929853871323 0.2927457580123010 1.1922278521022560 46 43 54
-0.5221587931350529 0.3091254919346931 1.1499237859142133 236 220 220
0.5034226367402133 0.3758832882795686 1.7315218405936310 87 99 111
-0.4116404706107088 0.2261782669179610 1.1851900773503770 163 152 124
0.0563884055574476 0.0369641066117895 1.7060499014023816 63 59 48
0.3737084657819545 0.3867436065384934 1.8786291402030424 53 66 83
0.3250431509860408 0.2252873070249325 1.8667596186314850 153 154 156
-0.4613601921277998 -0.0065293567997835 1.2098955747339704 183 195 191
0.4150189537919545 0.2357096588535946 1.9095503488903069 104 110 108
0.5187638086455564 0.0660508858098469 1.7819921536098131 107 92 97
-0.0651664232724922 0.3298544137883599 1.5631346946045772 101 120 135
0.1474341084767079 -0.0858205721801023 1.8303106857756086 133 129 102
0.6756936514101944 0.1630056644624374 1.8197617228780085 115 90 94
0.7134387940293259 0.0805156704034734 1.8578641325011287 151 147 135
-0.1978855643407436 0.3097721513701467 1.5552570327438802 57 50 57
0.2457690587363862 -0.0777043222403106 1.8904123980033229 118 122 131
-0.1869343282939350 0.3107444945206893 1.5598505604979149 57 53 54
-0.0191870709183550 0.1195317786329168 1.6432996536801650 145 147 144
-0.3400527000772854 0.0392768129646884 1.2704058147146062 124 124 132
-0.1221985946165501 0.3476436104216262 1.5860805445966659 61 69 72
0.5595088540986046 0.0739936149691054 1.7735159048735112 121 93 92
0.1850885319078118 0.3762096902458823 1.7548203879977984 79 89 91
-0.3498803720192663 0.2667620902255134 1.2109077293358936 159 156 139
-0.4285308489784645 0.1233056264397794 1.2000682342665845 68 59 62
-0.4586755436675254 -0.0978153442338809 1.2281228518609060 140 139 134
0.4535245574157653 0.0741914413832111 1.8972050544321186 126 128 117
0.6502714943099854 0.1691034149402640 1.8032683371341116 77 80 89
0.2918763340196029 0.2324818929385385 1.8512990152848949 128 116 104
0.6633549833636898 0.4273665853677355 1.7465403531211261 106 119 128
-0.3824611367417144 0.0748465769985113 1.2334620953470248 148 137 119
0.2894967792714471 0.3965633303207506 1.8086663489015586 50 55 59
0.0462497644886440 0.1986549516931650 1.6581697487698073 125 116 99
-0.3553098543503550 0.0781592506684479 1.2464097477899323 147 133 120
-0.0122382191367787 -0.0701712934928281 1.6910637976508465 55 56 60
-0.2435640037033989 0.3221731804522378 1.5220032747471748 74 75 79
0.2924601692217187 -0.0506344184975436 1.9164599728137435 142 136 114
-0.2206476672332638 0.3567584842478898 1.5282275452200498 82 89 108
0.1072237405608665 0.0584024507076140 1.7277544031891008 122 113 106
-0.2231770613897362 0.0687255030507754 1.5934188793830830 80 96 122
0.5949003576792837 0.2386884672649293 1.7573793723785460 136 132 120
0.1948899840357816 0.0676425886167649 1.8293143202875040 147 140 114
-0.0973012353518674 0.1949408494708517 1.6380159871393760 72 62 60
-0.4259156308708173 0.2731049028208574 1.1668813495025552 148 135 119
0.1041294738793878 0.2118947580889020 1.6814039485053074 121 108 91
0.1280831186660950 -0.0457164893717499 1.7737831870714214 110 141 170
-0.4054269716379068 0.0398450860209072 1.2315912541970446 64 70 86
0.3065797260325113 0.2453853034308386 1.8556071490031054 121 116 112
0.6511818596571602 0.4119620202200514 1.7499385164828307 98 108 110
-0.1598495929165909 0.1959082428643299 1.5961954110358374 59 68 63
-0.4819337198259652 0.2490346170067837 1.1444689287366161 155 134 103
-0.1658627221354775 0.0443969404042719 1.6287526240888250 150 142 123
0.5489835709280606 0.3981841053377793 1.6952030349437091 105 105 113
-0.3709990182293272 0.2945829590774196 1.1983888730181791 38 38 64
0.5958262469417067 0.0908739399165424 1.7896055582708175 158 151 125
0.5610585335771567 0.3997465379310125 1.6977510062618013 104 107 116
0.6762699335673718 0.1925292780848334 1.8174754433103697 109 90 76
-0.3488939072173704 -0.0674178515990232 1.5365931568403770 126 113 96
-0.3237510701058701 -0.0658688034723963 1.5481452775471383 134 126 105
0.0553839634143550 0.0611028910021820 1.7032894788588917 76 90 101
-0.3738099808611101 0.0513910736425303 1.2390252732248961 129 128 126
-0.1757943399055038 0.1982875220478058 1.5902462562788855 132 131 127
-0.3594380642543566 0.0528980917298980 1.2474869015191719 135 131 122
0.2224245946210097 0.1709767649963011 1.8243267480102161 148 143 137
-0.3712399836862416 0.2747783704920216 1.1992904094764474 143 138 135
-0.2664413653965687 -0.0573067652206139 1.5808652329377775 127 123 112
-0.2344341705578511 0.0856979675527026 1.5917907232023329 96 113 129
-0.4754429520037197 0.0840208826471791 1.1811977652280032 148 142 128
0.8266948210265206 0.1170393083185735 1.8607798817971486 31 36 127
0.3263915282590082 0.1365657296630806 1.8911071706141740 101 76 71
-0.4666908070348644 0.0846737471837950 1.1850973774446887 138 133 113
-0.4613796350418713 0.0181495247262269 1.2038757117716887 135 143 120
0.6557626169447717 0.2669966844012162 1.7856623174810085 137 131 109
0.2072214711248503 0.0853963986910034 1.8336120080624265 149 143 131
-0.4466364591947324 0.2697388632213122 1.1564395284639746 157 145 131
0.5467626572187196 0.2576856759414048 1.7258330340083563 141 130 124
0.6672643030204918 0.1110903865611242 1.8276750626904477 153 150 135
0.2427956508898000 0.4144396999365105 1.6951331505560108 47 50 69
0.6745053000014943 0.1129801226755079 1.8313430346923698 112 82 90
-0.4290607864349945 0.1505210156360121 1.1944701212108617 95 62 69
-0.1861700521778696 0.1391021111132971 1.5963621395006926 77 66 60
-0.1859106220940805 0.1391252492230424 1.5956617718574047 77 66 60
0.0750565377165694 0.3569847535736402 1.4601388540930116 55 74 91
-0.4622979556847067 0.1497632590037336 1.1749826149197895 154 147 121
-0.3904210436888131 0.2889427996963198 1.1971400641347534 88 91 98
0.2670366188401427 0.1846953205993410 1.8397030456780721 121 121 123
0.0417572696758946 0.3588235079643181 1.4702630563289421 72 81 96
0.6957756699988350 0.2863978648354749 1.8007015709407022 112 102 92
-0.4830037396291800 0.0883164206613946 1.1796380601645193 94 86 73
-0.1667970171921942 0.2193496298328391 1.5915172070100543 123 120 115
-0.1861174973882538 0.0621507583417237 1.6159634378927408 70 56 55
-0.3168497368217152 0.0518844110142536 1.5415756778838092 120 111 94
-0.2029373281861981 0.1412335226640099 1.5868084587466973 132 123 106
0.6488811653291604 0.1163604780878339 1.8175029796860716 104 97 104
0.5109539820914374 0.1513372789348997 1.7732319328814381 122 125 108
0.7008152592494253 0.0057296123112513 1.8545686734113402 155 146 113
0.5476163376570660 0.1088132640614250 1.7580776442619388 160 156 145
-0.1634770124570520 0.1456001971003028 1.6086116908108739 134 128 114
-0.2528456969726717 0.3607029561046521 1.4226898955944918 58 71 79
0.5961317305760768 0.1151373195476383 1.7844730054608580 158 156 135
0.1879170911111212 0.2650824327284606 1.7868998639537068 61 71 80
0.1318339978262585 0.1361577779696174 1.7288786787258357 138 144 140
-0.1025110378112934 0.1529664691212800 1.6368904036237566 100 92 79
-0.3698783466388428 0.1012794806613714 1.2369485980757289 116 106 81
0.4638541701767267 0.1668838017069018 1.8563571635783036 111 111 101
0.3730784795296578 0.1145815120981680 1.9351564562023646 81 90 107
0.0012569335056964 0.1570101041693908 1.6310271709614319 141 135 113
-0.2764276289424358 0.2116077368667902 1.5304155692949970 111 107 104
-0.1586731667278530 0.0724511382343468 1.6491269830234194 106 121 142
0.7175261058182398 0.0078002956732811 1.8616382970433802 151 141 114
0.4115426118173666 0.1720266396335216 1.9301853466616870 73 62 60
0.3352613897005184 0.1133320211429252 1.9003227244595478 140 134 120
0.4866969233485511 0.1173288395256829 1.8342718289527435 97 93 92
0.5188466057861060 0.1145038439838723 1.7710623327315778 65 53 57
-0.3820540549531479 -0.0531220999329805 1.2734056123327406 50 78 102
0.2325443022796639 0.1946768411278604 1.8237197277583626 132 125 107
-0.1660333083053636 0.0723556899493245 1.6228303052658843 142 138 127
0.0627108324790516 0.0883088598104189 1.6969375253651193 149 138 120
-0.2069630476017819 0.0714596242552865 1.6003173959559946 140 136 127
-0.2217861393929710 0.1167711135131173 1.5813388014634171 64 67 82
0.0749886729474430 0.1379682636687941 1.6941141058578233 136 137 139
0.7133017107103378 0.3011995635131806 1.8070190849756884 123 122 104
-0.3168487509107500 0.0630550864625384 1.5395528026801437 130 118 106
0.4318767934701034 0.2169853764532310 1.9211170312998089 106 101 105
-0.2523124678909570 0.0694243114424294 1.5905045706808314 53 72 105
-0.2727192382513968 0.1467716248539224 1.5435037621105310 116 119 112
0.5470890344965794 0.2824667297558833 1.7203839668548440 143 135 133
0.5137222636042209 0.0104982823350748 1.7986597838658502 255 255 243
-0.3398445410668631 -0.0375480797946874 1.5469758060868142 133 124 109
0.5847045998318083 0.2109361149533544 1.7586627825563195 95 72 54
