ply
format ascii 1.0
element vertex 695
property double x
property double y
property double z
property uchar red
property uchar green
property uchar blue
end_header
-1.5939377006850710 -2.0578261222681222 1.6529540554669180 189 185 160
0.1396295058873064 0.3939476423745845 1.8452093403795282 92 91 86
-1.5575960495430623 -2.0864543304425860 1.4330044060995752 187 181 133
-1.5575960495430623 -2.0864543304425860 1.4330044060995752 187 181 133
-1.5929907456619652 -2.0715252006376561 1.4734106603706978 92 105 88
-1.5805699488189273 -2.1792324003133015 1.8341052184566107 124 124 98
-1.5929907456619652 -2.0715252006376561 1.4734106603706978 92 105 88
-1.5805699488189273 -2.1792324003133015 1.8341052184566107 124 124 98
-1.5613726100323477 -2.0602467872426993 1.5310397671216847 198 192 156
-1.0246614452603755 -1.7171979531643653 0.6302390141567522 222 215 199
-1.5809255351677596 -2.0705355937198879 1.6652016921035784 181 170 142
-1.6666569948754151 -2.0562675783175215 2.0208851248550621 72 87 94
-1.6587446139616639 -2.0785973692013004 1.6674549893262913 233 180 126
-1.6242551040786231 -2.0777581660238096 1.9688314396422855 158 158 150
-0.5454337397829442 -1.6038206546000089 0.4009600581837132 236 241 245
0.1308962379387814 0.3893358949112940 1.8890448954084309 189 46 42
0.4524049362431031 0.2242442335641961 2.3717236787490390 188 117 35
0.4530914074821596 0.1718390716422560 2.3813683068989078 181 120 37
-0.1761556476292379 -1.7183651685274237 1.7965569363466036 255 254 251
0.4530914074821596 0.1718390716422560 2.3813683068989078 181 120 37
-0.9716662644817603 -1.6683380698461729 0.2002680412054645 209 201 182
-0.9339705312243556 -2.0201156398574587 0.3263228949276362 178 157 130
-0.0571888958733613 0.3049154149224301 2.0155766094297380 90 90 90
-0.9858762360749536 -1.6606610134307032 0.2124843448685267 215 202 183
-0.9736931700683664 -1.6614048606221483 0.2153605777621391 215 199 174
-0.9736931700683664 -1.6614048606221483 0.2153605777621391 215 199 174
-0.9975347913533427 -1.6491151906257813 0.2286249828537515 83 83 75
-0.6251527280595908 0.2869933421703593 1.9262923779286463 97 97 97
-0.1804474357149734 -1.4334622120620868 1.9116224476642156 206 184 173
0.1280799527105485 -1.5424375218674649 2.1373614571002051 132 96 70
-1.0539478094419474 -1.6518732263250486 0.2261561247169205 135 134 139
0.4467015918808671 0.1505948630017971 2.4259804733277721 189 123 39
-1.0539478094419474 -1.6518732263250486 0.2261561247169205 135 134 139
-0.0256194681608921 0.3445883296573692 2.0435139757967260 109 108 103
-0.0256194681608921 0.3445883296573692 2.0435139757967260 109 108 103
-0.4295505823553062 0.2848585556016539 1.9601474754092754 76 78 75
0.5098802987653278 -1.1189637814378743 2.1378436749916148 190 120 22
0.4572448412612073 0.1489277358079485 2.3505228050656419 165 104 23
0.4802912113160249 -0.3952691270653504 2.2624424578133184 175 103 19
0.4589331428497800 0.1446435606693552 2.3520747426539894 231 173 91
0.4533563862441893 -0.2996394226762117 2.3977631105075452 206 138 31
0.4542561141600386 0.1628411936611430 2.3696436781236025 180 119 38
0.5315002888668096 0.3741736601174311 1.8799795656144866 102 59 16
0.4678086719833715 -0.3496912998773540 2.3099602543075490 177 107 19
0.4547069451190209 -0.5401709685262911 2.4020115253329726 190 117 22
0.4547069451190209 -0.5401709685262911 2.4020115253329726 190 117 22
0.4893029670564858 -0.8027638497997909 2.2679396771274143 172 100 15
-0.2290349787374074 -1.9959683364637550 2.1122668151178057 31 27 15
0.4833862115712088 -1.4088087327025245 2.3444645236458030 254 182 80
0.1814661089915373 0.3324114157458579 2.0989370170544608 116 116 108
-0.3235218213600495 -1.8128513646456286 2.2427984840581776 24 25 20
-0.4076989067839973 0.4133401435032266 1.6812694605111853 95 94 99
-0.4076989067839973 0.4133401435032266 1.6812694605111853 95 94 99
-0.5519599748964074 -1.6037555375958559 -0.2399685392570867 181 182 186
0.1936321029888592 0.3603013431625348 2.1223314993713731 55 50 47
-0.0354849078577583 0.3679931317355450 1.8879213022240375 85 85 83
0.1915530815896231 0.3575868150561208 2.1224800595140851 55 54 50
0.1828454030159300 0.3448507391316900 2.0012886047915601 87 86 82
0.4483579922183270 0.1398594894268933 2.4319760081622430 188 122 36
0.4275426196654919 -0.0199317585383984 2.5556620123481082 182 119 26
-1.2933673260891287 -1.6161135390774912 -0.2200913432044536 176 172 137
0.1987284376753178 0.3073339310704753 2.1323469331028480 102 99 94
0.4245738205946387 -0.0257564282451633 2.5616204445674029 190 125 35
-0.8635760196710238 -1.6016765408080262 -0.1851638969587932 245 255 255
0.4424906714467640 0.1309219098264647 2.4427676994247491 178 117 37
-1.2873111909075750 -1.6200981497481608 -0.2128720478478983 237 235 212
0.2100605527959607 0.3125461171107504 2.1509922394614085 98 94 83
0.3366130718439511 0.3739434782508022 2.0579787279002391 255 240 223
0.3305846291739210 0.3518060435812018 2.0513100473656638 194 189 169
0.4179623843882529 0.0928006195373310 2.5974589403379627 209 143 46
0.4418001067887544 0.0902412808562043 2.4708768954290745 185 124 41
-0.0760537995549362 0.2242998378043017 2.0888253252832518 153 148 144
0.2244758583866761 0.3238226801428422 2.1702147692882203 130 124 112
-0.5264701671968862 -1.7675843520892400 -0.2151520514061004 108 110 105
-0.5213319551934139 -1.7609994931922675 -0.2033831172875050 173 174 166
0.4237842519926465 -0.7201963719703869 2.5965362613551202 174 100 11
0.4237842519926465 -0.7201963719703869 2.5965362613551202 174 100 11
0.0457296722136412 0.4236475377315226 1.5301559858457578 82 82 90
0.2299223237432786 0.3082247815026302 2.1729768746302582 123 117 105
0.1737804107685493 0.3266226070145960 2.0455793442895347 80 83 76
-0.3657120763931503 -1.8155891473997638 2.2318566755163802 26 27 29
-0.0556470010456232 0.3274360291762571 2.0167583508735443 14 14 12
-0.0506235673705953 0.3442935828587044 2.0250435379855096 35 34 30
0.4137996121300715 0.0567048475742179 2.6253735201501733 210 142 41
-0.6412841887805760 0.2903041234283987 1.9190618272471844 115 120 116
-0.6412841887805760 0.2903041234283987 1.9190618272471844 115 120 116
0.4336920411655120 -0.7706271122573806 2.5413572445560662 188 116 18
0.4336920411655120 -0.7706271122573806 2.5413572445560662 188 116 18
-0.0255778821353997 0.3328164960590293 2.0464237532385465 18 17 13
0.1737253476623148 0.3220302000982035 2.0623672378507982 91 92 86
0.1737253476623148 0.3220302000982035 2.0623672378507982 91 92 86
-0.0261505847199720 0.3446152765450896 2.0406134500261754 21 22 17
0.5310318749600774 0.4524011057821097 1.6134704416137575 42 32 23
0.3671747779612485 0.3625895662295197 2.1146901654030836 85 84 80
-0.9153746676234958 -1.7108850336162329 -0.0847615867147583 162 162 162
-0.3788971704223709 0.3731133027024824 1.9044868464875668 67 67 65
0.1810029755604099 0.3377750691985312 2.0816214689913513 34 33 29
0.1866884490098293 0.3635659434293587 2.1027742641222416 115 112 107
0.1791289271708821 0.3195724156964810 2.0869612622907967 105 105 95
0.4126928926696225 -0.1852880838396737 2.6784340527076114 193 127 33
0.3329780345046045 0.3800294818199942 2.0584237309881845 144 119 97
0.4035064009013349 -0.0328503633246114 2.6934436649128584 188 125 22
0.1856561489621608 0.3623606329748864 2.1083198622663630 101 98 93
0.1936085029827909 0.3611532466881445 2.1195598084988028 104 104 94
0.3116382858684368 0.3559657872113281 2.0511987245815488 16 12 1
0.0525335910464318 0.4359712910031651 1.5280445637459850 46 47 52
0.1917464748888008 0.3391140970754556 2.1172137615334115 37 32 29
0.1917464748888008 0.3391140970754556 2.1172137615334115 37 32 29
-0.3532401218244149 0.3744107216251543 1.9640701382258754 157 139 115
-0.0199875334388137 0.3807419586116362 2.0172086595818350 90 90 88
0.1971633286441507 0.3277087413711348 2.1236579672790108 48 43 40
0.1960221334716243 0.3090368892147644 2.1274671758259047 39 35 32
0.1960221334716243 0.3090368892147644 2.1274671758259047 39 35 32
0.2014843473047244 0.3353995393231283 2.1404252583777121 45 44 40
0.3356156261403639 0.3556996191384755 2.0649395901125414 60 45 22
0.2021874247789161 0.3196172486824734 2.1400768653874986 113 109 100
-1.0262926303516542 -1.6870096124596305 -0.1550429264273202 252 252 254
-1.0262926303516542 -1.6870096124596305 -0.1550429264273202 252 252 254
0.1979347074968368 0.3302980609013091 2.1351479677047127 46 42 39
0.4192474264118161 -0.3902473184552295 2.6329627359093064 194 118 32
0.3397230526059700 0.3507465000558251 2.0676337063090542 81 59 35
0.2030696795663020 0.3097409479108167 2.1416399575060949 112 107 101
-0.0831735559956532 0.2379426519759425 2.0735672877785096 83 80 75
0.4777192484478381 0.1992938459046616 2.2587520248016020 182 118 30
-0.9509923987892832 -1.6418875592839801 -0.0845101099341562 255 255 255
0.1739609503092226 0.3422682355675036 2.0456766560034567 28 29 24
0.3383222484681607 0.3510996501557130 2.0765213180807440 128 107 80
-0.0825272261873172 0.2223881168662797 2.0821418428296310 91 88 79
0.2234281289992681 0.3284798261621128 2.1692442748425163 48 41 35
-0.4126192464927923 -1.5443290502246321 -0.2529736099870254 98 103 107
-0.0744698389538287 0.2003101823182063 2.0860015660134574 38 33 29
0.2321401274664839 0.3110086890890583 2.1731787686256672 31 26 20
-0.0552155999093330 0.3223557825361052 2.0163381849026782 91 96 92
-1.0418702604044812 -1.6966416651106850 -0.0671990718219792 254 255 251
0.2364700646869193 0.3142456459873013 2.1787349399234803 38 31 23
0.2364700646869193 0.3142456459873013 2.1787349399234803 38 31 23
-0.5224076120203029 -1.7175708839985477 0.0500016736955653 151 153 150
-0.5467193776087000 -1.7455656191768996 -0.2757596910712130 158 160 159
-0.5574318029604305 -1.7860743377457124 0.0297401387287172 98 100 95
-0.5574318029604305 -1.7860743377457124 0.0297401387287172 98 100 95
-0.5387500453930868 -1.7809572079713478 0.0459370100492305 157 159 156
0.4779003360684103 0.2683331213563500 2.2138184749570744 153 95 21
-1.1090183005104088 -1.8129797679293225 -0.0003550336408176 227 219 196
-1.0936415921719702 -1.8177004072465242 0.0008430107426979 225 217 194
-0.6496904907001586 -1.8639043240049096 0.0147104368435523 245 234 204
0.3399531768372190 -0.1764196764980419 2.0921863639112042 30 26 17
-0.9546512892248220 -1.6638386878684943 0.1125588002144670 200 202 180
-0.5346232803029034 -1.7728553264038867 0.0728971943509937 156 160 159
-0.9633264791824098 -1.6819088560731901 0.1084771174784331 184 183 179
-1.0947264092370357 -1.8224667347084391 0.0060586296580754 150 143 125
0.3358265631947906 0.4226220720563075 1.5677212191498147 211 173 134
-1.0249457865482854 -1.6434403493706455 0.1792397303834081 127 102 97
-0.6990721841321095 -1.9071205201794041 0.0482561915976662 216 208 187
-0.5956719557939572 -1.8848266425119464 0.1025878151775342 89 93 96
-0.5916986831515794 -1.8880082695470604 0.1169658222771805 93 99 99
0.4671060290931430 0.1381344844269209 2.3085968663727785 199 139 41
0.5040093429150271 -0.6733139033658179 2.1318637824023225 166 97 19
0.4610782353474172 0.1264743980691263 2.3216122930470262 181 124 34
-1.4272727983432809 -2.1963417604216779 1.4850861168222729 141 130 100
0.4770442120171630 -0.1722491478249356 2.2801077808788448 167 103 29
-1.4272727983432809 -2.1963417604216779 1.4850861168222729 141 130 100
0.4644572630656043 0.0985136067361463 2.3376102280277133 185 121 31
0.4628093868902760 0.1343781701215982 2.3358288789642301 182 121 38
-0.9576832885336359 -1.6631456350198963 0.0911774038895103 109 109 99
-0.9576832885336359 -1.6631456350198963 0.0911774038895103 109 109 99
0.4555906707903105 0.1571035232942020 2.3620958846339195 177 119 37
0.4549920665569727 0.1502958264683187 2.3675374073109814 184 123 40
0.4549920665569727 0.1502958264683187 2.3675374073109814 184 123 40
0.4585386630199932 0.2092980145673611 2.3776746080263691 177 115 30
0.4585386630199932 0.2092980145673611 2.3776746080263691 177 115 30
0.4543893084551954 0.1568366465489721 2.3689147775311374 228 169 93
-0.6345793127501100 -1.8560757570005559 0.0301253815418514 97 99 98
0.4543893084551954 0.1568366465489721 2.3689147775311374 228 169 93
0.1294348865728134 0.4203704620485931 1.6870498792464546 203 68 65
-0.2613037259720221 -2.0083531882196022 2.1577687687241189 96 94 82
0.4360039964785004 0.0536345699407092 2.4993164475875056 188 124 37
-0.3005069239722827 -1.8259764049459555 2.2393658943796919 47 49 46
-0.2618546181264218 -1.5877696177579548 2.2682556244304486 190 180 179
0.4367311913897311 -0.0066419385827441 2.5394427002759552 184 123 34
0.4262062724699836 -0.0347312969294157 2.5669243230105994 186 121 31
0.4127783568111077 -0.0845477796320169 2.6094675140505825 185 121 31
0.4156805523983554 -0.1314874493670956 2.6391350189625644 178 114 24
-0.0493885365477459 0.3462938725263591 2.0218160831284400 145 138 119
-0.0493885365477459 0.3462938725263591 2.0218160831284400 145 138 119
0.1841490044360160 0.3429589673290186 2.1059079671721590 41 41 33
-0.4586198026076777 0.2209469183817381 1.9246181135880551 248 249 243
0.1886650790871192 0.3596311205919674 2.1132723029220015 102 99 94
0.1947626614233757 0.3176750051484611 2.1216294041903123 43 42 40
-1.2964624718169522 -1.6210547427199824 -0.2664659605573742 119 124 120
0.1990554003788979 0.3236437390904330 2.1376009044561046 117 114 107
-0.2347699971456400 -1.9566681620455382 2.1509209931206930 214 211 202
0.2225527485076891 0.3229581223692364 2.1582454163700442 45 40 34
0.2164626750130186 0.3230291526515750 2.1591494132663800 104 100 89
0.2164626750130186 0.3230291526515750 2.1591494132663800 104 100 89
-1.2827787669855821 -1.6113258832606863 -0.2483474383778906 255 255 231
0.2033444444833705 0.3068973238652338 2.1350623957392445 48 45 40
-1.2833820217456517 -1.5950218698442724 -0.2098471817887785 255 250 211
0.2268862373352118 0.3072668685925654 2.1688987691452857 51 46 40
0.2268862373352118 0.3072668685925654 2.1688987691452857 51 46 40
-0.5000919409862800 -1.6753916586076520 -0.1579922691277849 115 111 108
0.4818971986518931 0.2692602004204195 2.2086148495945865 158 104 34
0.0535845844838460 0.4417094931595146 1.5311737495255959 73 77 76
0.0453611392896848 0.4266278895857470 1.5368837642523063 73 77 80
-0.3997300597756092 0.3957600152382682 1.8087918480845924 84 84 84
0.0464804710113495 0.3892169428801750 1.8981840256659346 18 18 16
0.4121587554633931 0.0427030686153052 2.6353589293901254 210 144 47
-0.0049323087620175 0.3872723845558904 1.9357886199655463 77 76 72
0.4136649223908146 0.0288732707345794 2.6400725585776148 255 194 99
0.4103838603539764 -0.6475250554021672 2.6514796218154522 199 128 36
-0.6532174152395156 0.2895187550185722 1.8741130900590093 142 143 137
-0.8187601303178464 -2.2232126388579903 -0.3148961832085986 115 121 117
0.3288525985967657 0.3716813049290592 2.0606449625943357 218 205 186
-0.6369945496253070 0.3659636023126391 1.9165523110164369 153 152 148
0.1795441329873392 0.3699582127888081 2.0555337275586409 81 80 75
-0.4126451317594353 0.3680197065289393 1.9673918786409874 78 78 76
-0.1704341187713991 -1.7092619085152341 1.7898208356966183 9 14 17
-0.5495938647257279 -1.7963084502439388 0.0324273679110396 94 95 97
-0.2011431297669613 -1.7731930949630437 1.8853685054338374 203 200 195
0.5469255763932936 0.4436044742099263 1.5792183645842710 206 164 116
-0.5877943144187729 -1.8025648869604280 0.0107650004458452 94 96 95
-0.5672969251076180 -1.7883328944479584 0.0310066344854595 169 172 163
0.4137358609728913 -1.5405988200170582 2.1835203966668120 128 77 50
-0.9713104766085588 -1.6690473030028010 0.0900667587490597 105 105 97
0.4726176040585127 -0.1705019757040563 2.2863885221337790 244 176 75
0.4561028924940256 0.1500594538185221 2.3613727153555426 233 175 93
0.1095525258727126 0.4216606538516164 1.6540510795402761 190 54 64
-1.1011669205838113 -1.8131309488908118 -0.0054173017668837 126 119 101
0.4510529086500066 0.1638657135444836 2.3772992941672086 235 176 98
0.4536026676959308 0.1851288217086762 2.3922187125466752 230 168 91
0.1973495574963698 0.4197338159757098 1.6675745430620985 189 49 48
0.4476734973388412 0.1720105101585023 2.4099877553144879 174 109 27
0.1973495574963698 0.4197338159757098 1.6675745430620985 189 49 48
0.1056295205315030 0.4050732331435048 1.6975269691535018 174 64 65
-0.5416193508100905 -1.7692359346131261 0.0370670982088360 156 157 151
-0.5416193508100905 -1.7692359346131261 0.0370670982088360 156 157 151
0.3218280532466729 -0.4075551083750454 2.1315573291731220 230 154 58
0.4090255862429242 0.0103634009523978 2.6595926426064915 199 136 33
-0.6334144642643902 -1.8812790292940593 0.0291644384574549 94 103 102
0.0904851973540729 0.4206264438577391 1.6542823638454456 82 82 82
0.0904851973540729 0.4206264438577391 1.6542823638454456 82 82 82
0.2157710562158559 0.3553773979997327 1.9449242598374348 67 66 61
0.1756124068795631 0.3241537862530167 2.0422252157061198 74 75 67
-0.6494749365232994 -1.8864481476429200 0.0405746242893738 188 189 175
0.4680530856583362 -1.1977362585784284 2.3867174058804381 188 111 23
-1.0667564758758299 -1.6552980186708834 0.1992273659689834 94 94 92
-0.9987692629303510 -1.6123738498949558 0.2549761654101798 92 97 93
0.4480219429612658 -0.5992959489727172 2.4716846375729120 190 117 23
0.0851673047636696 0.4185039248972036 1.6826635989099874 83 82 80
0.4480219429612658 -0.5992959489727172 2.4716846375729120 190 117 23
0.0851673047636696 0.4185039248972036 1.6826635989099874 83 82 80
-0.3501180736856189 -1.8121564485713029 2.2363265691414771 253 253 251
-0.9900157053684457 -1.6681275079035554 0.2342013562813587 170 145 115
-0.2542506984358773 -1.5710033523632803 2.2773887289540826 255 252 251
0.1036832630467294 0.4140402579886685 1.6907090159972082 195 64 56
0.5460175038864400 0.4178772091924697 1.8334323959416596 202 142 72
0.0517241758047707 0.3958684344281457 1.8664136523788157 83 82 80
0.0680258716315244 0.3955926002651780 1.8844064974316386 196 64 59
0.0456042889500454 0.3932321441455875 1.8945903345698727 80 81 76
0.0660291955128571 0.3903458032107062 1.9014919654065645 198 60 58
-0.4176240855159359 0.3589822206676598 1.9675404442468107 24 24 22
0.1267731608908503 0.4207241849274186 1.6665161395099943 48 22 21
0.1267731608908503 0.4207241849274186 1.6665161395099943 48 22 21
0.4443658187979022 0.1879962606213613 2.3996494422788159 187 128 52
0.1375782561006008 0.3905430489438975 1.8688918443205982 221 87 88
0.3345836891657215 0.3722901217045973 2.0565917914535650 145 128 110
0.4774129937129733 0.4366822389176618 1.6139972337022686 110 116 128
0.0724113330461899 0.3923555271350909 1.8620817181200153 206 76 76
0.0724113330461899 0.3923555271350909 1.8620817181200153 206 76 76
0.0868794980662524 0.3961326549075245 1.8769063156122268 46 21 25
0.3110904770827553 0.3507099049336059 2.0715107436383384 24 25 19
0.5318614949967674 -0.0920874276561459 2.1827892444734314 133 77 26
0.3397169248223777 0.3484075712397917 2.0368719636813357 149 121 84
-0.9811392190720556 -1.6689982561181600 0.2000463268400734 174 168 146
0.4600966749006019 0.3589873433664892 2.0643234866133549 83 78 74
0.3302143487098675 0.3603533864777900 2.0644858560090369 61 48 32
0.1279468064823010 0.4190055899276804 1.6956456042231152 185 49 51
-0.0466280978259313 0.3432486259836922 2.0110675793976567 20 19 17
-0.0466280978259313 0.3432486259836922 2.0110675793976567 20 19 17
-0.5198492764077653 -1.7232669872765616 -0.2123355465908704 158 157 153
0.5350716796493479 0.3928170586856712 1.8742820097714437 118 67 22
0.4829453255688533 -0.0606154354353323 2.2074096053016636 151 93 30
-0.5104606364701504 -1.7360141745844824 -0.1768587828083165 177 174 165
0.4962298924562685 -0.5331248456250258 2.1802520221503396 168 100 37
0.3299982070794288 0.3459284812730093 2.0527407133222217 184 181 162
0.4524829433074533 -0.5683412765221599 2.4191276753480406 184 108 32
0.4524829433074533 -0.5683412765221599 2.4191276753480406 184 108 32
0.0286437358384451 0.4022187922764633 1.5782969012599031 77 77 79
0.3986140687935301 0.3627005821604055 2.0509555556034562 72 71 67
-0.5712890996478718 -1.6419420741395172 0.0154199823241456 180 191 149
-0.3611961575703670 0.3696316189747340 1.4679451614978709 31 36 42
-0.3578463734616730 0.3622640946476381 1.9619572925540174 48 49 44
-0.4977322414200696 -1.6819881648251185 -0.2711756284018526 111 110 115
-0.4977322414200696 -1.6819881648251185 -0.2711756284018526 111 110 115
-1.0329329591098648 -1.6304477315431369 0.2457476534816424 91 91 93
-0.5913479344235762 -1.5747764671946776 0.3559229967768515 92 97 101
0.1602163168346762 0.3767311612486259 1.6987540861064112 24 22 23
0.3343079385613306 0.3583454580206149 2.0540831480573849 121 109 93
-0.1716762027978464 -1.6401925245489444 1.8570962315531649 255 255 253
0.1266257900079425 0.3937799209149269 1.8914643092184960 189 46 42
0.5291771773006750 0.4303941293595267 1.5953256171509422 37 37 29
-0.1731419677947061 0.3577754882158367 1.9943516545257245 186 162 128
-0.1731419677947061 0.3577754882158367 1.9943516545257245 186 162 128
0.1734970269853140 0.4089917934516936 1.6846283521948380 175 41 40
-0.7683105809452589 -1.8376089505782616 0.1318010581744362 228 223 194
0.0426052270140946 0.6723643516354528 -1.9387415867330464 84 98 137
-0.4005677187020399 0.6940991432918152 -2.3764930518495158 103 121 159
-0.4020260932431783 -0.3266154387158536 1.9001117911541396 54 55 57
-0.2464522737264507 0.7799057439393300 -2.4388856449813381 117 101 138
0.0417855255475114 0.6562437770358384 -1.9371481781288626 80 90 117
-0.2553060888421993 0.6870522614722286 -2.4686313747200130 109 104 136
-0.2553060888421993 0.6870522614722286 -2.4686313747200130 109 104 136
-0.2867252644005042 0.6840367040833176 -2.4756601577736568 240 255 255
-0.5207097843753954 0.7105289761825158 -2.1880285840212244 122 119 162
0.0430888555334228 0.6921493220826030 -1.9347025426207258 165 177 215
-0.5182807485715066 0.6741400068254412 -2.1936946435291729 96 108 158
-0.2190642091449136 0.6841247341334535 -2.4522959127926089 75 94 134
-0.2709203363876295 0.6650695653238468 -2.4628776950546567 125 118 151
-0.2247131463854428 0.6640535207358013 -2.4550515466559206 83 106 150
0.0454215627403696 0.6170699500900347 -1.9382054690338590 157 165 188
-0.2528417894560892 0.6537386961822776 -2.4687645786111676 235 255 255
-0.0780082681908941 0.2277522735647792 2.0940460588481011 12 11 7
-0.0416232526818077 -0.0770462645645611 1.9824589916424731 76 77 72
-0.5295577655315944 0.7200562458445992 -2.1950279176295817 223 218 255
-0.5296427877059942 0.7023060861306414 -2.1945364044478355 222 217 255
0.0317151719051227 0.6640660060569360 -1.9306628805346200 150 162 188
-0.2200588154311313 0.2048284475652832 -2.0026280602740822 185 204 221
0.0317151719051227 0.6640660060569360 -1.9306628805346200 150 162 188
-0.3194543263710342 2.9572740841661123 -2.1652553257051901 193 170 139
0.4595567547895933 -0.2051895253548254 2.3367492056919561 106 51 0
0.4595567547895933 -0.2051895253548254 2.3367492056919561 106 51 0
-0.4345109298511641 0.1079924298685766 -2.0508968980877875 249 252 255
-0.0298680454216035 -0.2310546668317151 2.0130205683327249 82 79 72
0.0003898041281215 0.5614481135074547 -1.5855360721189440 108 111 130
-0.2863983436159149 0.1718077801311510 2.0448550502207796 30 9 6
-0.0466801972767705 0.0585816160018856 1.9992917587352304 69 70 65
0.2272647882551291 -0.0284113535959900 2.1935999582622094 25 24 19
0.5188642059272224 0.7947868028754538 1.9386565361294450 148 88 28
0.5188642059272224 0.7947868028754538 1.9386565361294450 148 88 28
0.4649196213415963 -0.1693135318037728 2.3095538660319526 123 65 1
0.4625150006988119 -0.1984382772105195 2.3307131041054689 127 68 0
0.4606425476579751 -0.2122583891215162 2.3415303812584005 140 80 8
0.4578899843483062 -0.2223222208711848 2.3505865700634314 126 66 3
0.1810683270917186 0.3534115291450449 2.1078233094945289 21 21 11
-0.2506002738321903 1.1388477121225888 -3.0639170627644328 230 255 255
0.2044456288918176 0.2999055478952467 2.1427131711340044 25 20 16
0.0300021464849164 0.0733413724080029 2.0521785133952966 83 80 75
0.3274378312532460 0.1317895218424142 2.1291668951118097 29 26 21
-0.4422802674149267 0.1073132103867084 1.9422721547509680 161 154 144
0.0049657840123076 -0.0628152779482458 2.0232973151534077 31 25 13
0.0355218337304313 -0.0832546507222875 2.0348766931832678 86 86 78
0.0356554507062388 -0.0832790105266005 2.0347336799930895 86 86 78
0.0377086209277077 -0.0983275848325931 2.0316567862305286 66 65 61
0.3328978078200784 0.0176041447865394 2.1133033735624154 24 20 17
0.0128175793404128 0.0241971643557470 2.0367212507281369 15 14 10
-0.0787671260146918 0.2045033708401886 2.0894973523916636 69 69 61
0.3290974491001301 0.0030285939218954 2.1148527764920755 23 22 18
-0.1830291112770303 1.6740037859020893 -2.6619730744651386 185 120 160
-0.0779212911720707 0.1767133072771644 2.0866934002158608 69 70 65
0.1936405924382749 1.0736066665368957 -2.3921089087046785 204 196 194
-0.0342063223984828 1.6243171971481276 -2.6863379409203958 172 154 192
-0.4873075506118924 0.1088785004611730 -1.9942565848627682 206 207 227
0.0465281212842305 -0.0376610655779920 2.0557869556804960 13 8 2
0.3321783532050439 -0.0647841008222478 2.0992726377690429 95 92 85
-0.0625129251679628 -0.2371925361718845 2.0402171412979007 22 22 20
0.3318170195236552 -0.1076764449981949 2.0956350611150674 91 87 84
0.3370857242190591 -0.1526506104214884 2.0955540833731421 28 28 26
-0.4326090327322641 -0.1287349209002313 1.9109733983476942 181 167 156
0.1964049122654845 0.3358400273246204 2.1407748584074993 88 87 82
0.3273282791436941 -0.1527340787942931 2.0932006401524621 69 69 61
0.4663513808690659 -0.1480429569539249 2.2866934670911210 115 63 15
0.4651828323704872 -0.1480725859037661 2.2879274820148972 116 65 20
0.4831703172862061 -0.0255789456997817 2.1920060604344007 78 40 4
0.4831703172862061 -0.0255789456997817 2.1920060604344007 78 40 4
0.0608230107936395 0.7120277428859123 -1.9402146285947013 80 94 139
0.3184794853544234 0.1319318302446189 2.1254922267956755 48 48 40
-0.3041170579472300 0.0040451497876283 2.0109389800579329 32 23 24
-0.3062343907347067 -0.0444884307967458 2.0106060031165520 29 21 18
-0.2799827250316058 -0.2018197490620258 1.9992894784202961 185 54 44
-0.2908772353012337 0.1618716462584700 2.0389427362092416 169 45 33
-0.2908772353012337 0.1618716462584700 2.0389427362092416 169 45 33
0.0306163012731597 -0.0050007212119658 2.0389301945995646 18 20 19
-0.3222303787926177 0.0353056805965203 2.0086959851690254 183 59 49
0.3282857305971816 -0.0950032541489479 2.0783594080482222 57 54 49
0.0235825901624018 1.3569155399452641 -2.6647597728628813 135 139 164
-0.2956165193592144 -0.0976187197077344 1.9888994243373956 180 49 39
-0.2956165193592144 -0.0976187197077344 1.9888994243373956 180 49 39
-0.3240785878247060 -0.0031237878553148 1.9611462714562018 17 17 19
-0.4200228592659654 2.3341706199338845 0.9872070043059201 197 155 107
-0.1143512311615921 2.0985721233458374 1.2768403928193401 159 114 72
-0.4321171151353685 2.2589243491720099 1.1212965091827682 229 186 144
-0.5124080939235307 2.4292725023559374 0.9644187875461514 174 128 68
-1.0601257803143556 3.1115763297808301 -1.5248501968427892 149 122 93
-1.0678092810378013 3.0716182806081020 -1.2869204908530751 123 98 78
-0.3011846656112996 2.1549683617630335 1.2170437664717091 157 120 93
-0.2657867332380308 2.1361256903464914 1.2365620779077962 153 112 82
-1.2592429370467602 3.0971100746421691 -1.3741988859104390 91 110 88
-0.4351146879399930 3.0347072666415147 -2.0687467669701207 182 159 118
-0.3651377874230305 2.2382150538824401 1.1088138267820107 254 210 165
-0.4351146879399930 3.0347072666415147 -2.0687467669701207 182 159 118
0.1818187868139848 1.1957356053684034 2.0955716423414392 129 95 70
-1.2446822668317445 3.0815151641162060 -1.3561439840196547 147 148 134
-0.4100725755859536 2.2918649138222573 1.0474664242017313 188 149 106
-0.5094233004498504 2.4507057330731015 0.8477061476012845 204 163 107
-0.2787654570008264 3.0308694287927986 -2.0535752438390396 220 193 163
-0.4295075653282378 2.3843524575805510 0.9238075977359946 138 95 44
-0.3936912539344720 2.2890951201925898 1.0508324150878334 177 139 94
-0.2712410738086627 2.1630496220484696 1.1474107347448268 163 128 100
-0.3093917089749580 2.9956429974989836 -2.0208973860721580 96 70 53
-0.4161751020072936 2.3152078525417008 1.0212893484370553 189 151 106
-0.2712410738086627 2.1630496220484696 1.1474107347448268 163 128 100
-0.4441018888224419 2.3958404443459171 0.9033394591657989 197 154 103
-0.3557638954030242 3.0141294533709737 -2.0762047421890570 222 200 163
-0.2341764397080490 2.1498719973788223 1.1662493724146528 226 187 156
-0.3378516013173140 2.1936078586682539 1.1307439775294910 193 151 103
-0.3477122476661508 2.2787237108245577 1.0101626315265326 183 140 89
-0.3212950175974884 2.1859704507275652 1.1357677805422051 191 149 107
-1.1514908086744009 3.0816300270573378 -1.3636137708872114 161 152 153
-0.3568974606216267 2.2742989294862883 1.0447651618666691 179 140 99
-0.2837388722865758 2.1880260073999307 1.1040301421879075 188 152 120
-1.2238384156537092 3.1201104133232715 -1.6391180868318356 129 150 153
-0.2131646024986533 2.7442847739420864 -1.6957426571777581 245 237 234
-0.2837388722865758 2.1880260073999307 1.1040301421879075 188 152 120
-0.3698951795969775 2.2985715550967427 1.0152775315279989 192 152 103
-0.2131646024986533 2.7442847739420864 -1.6957426571777581 245 237 234
-1.2236059331122515 3.1203119833618516 -1.6396808217725205 120 136 126
-0.4039961484309766 2.3265214421012872 0.9797850195356671 193 149 100
-0.4921233231489789 2.4359924891465816 0.8231323912085711 240 197 146
-0.3008478752283540 2.1878951126294033 1.1224067735669185 184 146 109
-0.4561516826095998 0.1049365974396787 1.9345401802524935 195 195 187
-1.1278852538350068 3.0724369345911873 -1.3553350328058937 115 111 102
-0.3120065787997484 2.2315398815822407 1.0442964108081807 246 202 153
-0.3236615101830671 2.2036015480874611 1.1006361582606699 228 185 140
-0.3415899215969008 2.2630680050660192 1.0392029821521405 197 153 104
-0.3561263532901118 2.3015799096664429 0.9706148031254942 253 211 161
-1.3207730049807940 3.0859164963800834 -1.4237175736277579 180 180 154
-0.2834102958347350 2.2025655533590092 1.0656083615831495 188 150 114
-0.2346882036688106 2.1543808862802010 1.1569124259175896 168 129 96
-0.2042737696986990 2.1526786595054506 1.1248783522757699 180 142 105
-0.3522149087740101 2.2853316883399173 1.0023135253342899 249 206 155
-0.4097362377863455 2.3787426624942167 0.8598340264787145 180 136 87
-1.2477282859780092 3.0829661894910405 -1.4045926617652604 95 108 99
-0.3957134382194624 2.3647465189405845 0.8758100597562041 255 214 165
-0.3122953176407130 2.2132323223586616 1.0722428460187403 237 190 148
-0.2469918639735040 2.9531188193715012 -2.0858871401861987 72 58 57
-0.3229658979734651 2.2369299274533492 1.0493873222968297 250 206 157
-0.2722942057927296 2.2127302326426852 1.0369584972321266 165 131 96
-1.2402692249505185 3.0819391601526718 -1.4062717097077206 167 170 161
-0.5013501333267210 2.4725884764910542 0.7470142905852698 255 221 162
-0.3331632217589338 2.2703076205356578 1.0128520300775479 252 208 159
-0.1689865357257064 2.9357060970987576 -2.0499471943558425 90 81 64
-0.3990849877468343 2.3671717632191656 0.8680676448918377 177 133 84
-0.5091457163113902 2.4535448031640263 0.8049514740882867 223 187 127
-1.3172587724038003 3.0833890751282271 -1.4322172848223820 104 108 85
-0.3236458566854861 2.2896164150040947 0.9565287810955696 186 142 93
-0.3076544291412964 2.9489732878041850 -2.1019518972223095 72 53 46
-0.5042379177454651 2.4464888223868395 0.8081562443802960 255 219 163
-0.5116397434402916 2.4831514895238391 0.7074571792162100 255 228 173
-0.3185854025425258 2.2440396293530971 1.0319791079066152 215 174 122
-0.4269408839260151 2.3883406441872013 0.8146838747838967 220 178 128
-0.3465551319229468 2.9445813117851145 -2.1235696097651404 116 95 64
-0.0417382895719208 -0.1327860447773697 1.9770066267491604 60 62 59
-0.3381816762544117 2.3187930146143998 0.8985562806442501 176 135 83
-0.2569590902435202 2.9490956121997929 -2.1118548052452266 49 35 26
-0.0433664041115370 -0.1242407616274199 1.9602548077327686 63 65 64
-0.2922236553683960 2.2652792681905831 0.9516792669564627 202 160 110
-0.2569590902435202 2.9490956121997929 -2.1118548052452266 49 35 26
-0.2155981099748912 2.1735258274797848 1.1004469692422441 179 145 110
0.0843259194078789 1.1789634161710560 1.9961343287964053 147 116 95
-0.0790909337680218 0.2323000574525075 2.0938031865629441 88 87 83
-1.2174781617705621 3.0809592721128061 -1.4181088905421055 116 128 124
-0.3742132086281884 2.3519463285042681 0.9012609372705821 171 125 76
-0.5056892565083420 2.4709224262481015 0.6984761827156809 168 114 54
-0.5049047780013860 2.4705803484003019 0.7585537781336941 211 170 114
-0.4308687558462738 2.3895156605543457 0.8488366263567222 174 132 82
-0.5004763136861944 2.4624688473365737 0.7055269989777242 255 202 140
-0.2976711237392641 2.2402445337001136 1.0092767431652523 196 158 109
-0.2221154417620437 2.2358797133761366 0.9745109188781699 177 144 113
-0.3248725690955392 2.3011997841510925 0.9432500028410422 234 190 141
0.3094781673691793 1.2114760908290347 1.9916974804423122 127 95 70
-0.0980492767371168 2.1177728772149877 1.1649707643180427 160 123 96
-0.4234182938093299 0.0509635922659649 1.9382391157911718 63 65 62
-1.0434305766480267 3.1300734969167681 -1.7138699888922082 192 169 138
-0.2403972763040403 2.2549535868820452 0.9493600828112883 218 184 149
-1.1632965457178774 3.1283889132331502 -1.7495165900319543 182 180 159
-0.0377139426223706 2.0492211689583835 1.1810334045467581 177 131 82
-0.4689627237071716 2.4093137961324715 0.7938034031011453 246 203 148
-0.2031067332625659 2.2328297171939657 0.9719754945845100 232 192 156
-0.1498918982746610 2.1695300285999202 1.0419461301785282 175 138 109
-1.2101996998188917 3.1350095921647472 -1.7954911853491611 80 106 119
0.1127575977333160 1.1848187617038275 1.9375715836143206 137 103 75
-1.2275869346668666 3.0983020807542685 -1.4695593112885794 200 173 162
0.0564446740155162 1.1854332999077621 1.9143715872415912 144 110 82
0.0564446740155162 1.1854332999077621 1.9143715872415912 144 110 82
-0.0788234269369330 0.2044194372779977 2.0895862478834522 67 67 67
-0.1553263516151756 2.1521430664327976 1.1101044334022194 226 181 142
-0.4199852275586782 0.3223095937918781 1.9732047650959792 17 19 16
-0.3167275282159228 2.2933187851407371 0.9370196558629434 191 147 98
-0.3113005322430648 2.2844089478905061 0.9457973912566595 233 187 137
-0.3806938987107936 2.3575086225517690 0.8563615258946399 188 146 96
-0.1636951301676357 2.1914912663356541 1.0075239392481494 241 201 165
-0.5062920601374344 2.4773579156848538 0.7148624978996431 182 134 70
-0.0788234269369330 0.2044194372779977 2.0895862478834522 67 67 67
-0.4552134619295209 2.4129437873659980 0.7823044979832168 255 218 163
-0.1852419312868867 2.2194349567632643 0.9759603229581147 166 119 73
-0.3090980537860710 2.2995872433471432 0.9194924816222279 255 213 164
0.0498024230932980 1.1857409881794319 1.9055557489485091 143 109 82
-1.1151182951001484 3.0925532632971353 -1.4719597887939639 197 195 183
-0.1471198731456050 2.1840532100073053 1.0107599758895711 214 172 130
-0.5092030017654243 2.4690600096860895 0.6882385302661193 182 136 77
-0.1471198731456050 2.1840532100073053 1.0107599758895711 214 172 130
0.0345435139421162 1.1849123409857187 1.9249510464862996 147 116 88
-0.1557816399209489 2.1978314703153146 0.9948229096863554 161 114 68
0.0394123380581494 1.1876618316961995 1.8958708910444304 138 104 77
0.2768830383925994 1.2117704071656445 1.9813169516519329 129 97 76
-0.0534115567223193 1.1903051633381503 1.8604758888534030 136 106 78
-0.0173036751465100 1.1894067764824900 1.8963740284352815 139 111 87
-0.1209508413270960 2.1381972878412561 1.0810456470518124 177 140 113
-0.1731663419027958 2.2154560988155887 0.9569575255996676 147 97 44
-0.2774177706140693 2.2851558481893850 0.8557405654174457 221 175 126
-0.2156836582890047 2.2388101169453343 0.9648422617377367 221 185 149
-0.3636256373961810 2.3546414949687620 0.8097880363803004 212 169 116
0.1797535871126851 0.3237143870280655 2.1072513885043573 92 93 88
-0.0608404096465075 -0.2734396053321297 2.0374514065612979 20 20 18
-0.5096941149941664 2.4554782818782130 0.6259512932142458 255 223 168
-0.4246893379255567 2.3647612808283744 0.7260156168367022 170 122 73
0.2853612781461165 -0.3508181305602994 2.1279732173866273 62 61 56
-1.1961491320983484 3.1052877787528068 -1.5395852180295206 153 149 138
0.2187713323493751 1.2166099250234561 1.9019318442404649 124 88 64
-1.1961491320983484 3.1052877787528068 -1.5395852180295206 153 149 138
0.0970402409257703 1.1901986964522566 1.8740851932205989 144 110 85
-0.3951958230318728 2.3577405316575071 0.7847964618730101 194 152 102
-0.1672641386720655 2.2100592730786164 0.9198970980959437 156 113 70
0.2185691680128196 -0.3529015769061021 2.0658783640155760 82 83 78
-0.1271444989133871 2.1972989137660544 0.9391030603879661 123 81 41
0.2026861844901135 -0.3413164339936310 2.0336735110692321 66 65 61
-0.4639337895544561 2.3981193341201292 0.7210049603566923 180 130 71
-0.1191525521586986 2.2036378716977922 0.9268228301983259 191 147 108
-0.0440657117629440 2.0617913921949342 1.1225181997611331 237 186 131
-0.0440657117629440 2.0617913921949342 1.1225181997611331 237 186 131
-0.3483902623086607 2.3296667490650682 0.7358748842604046 180 138 90
-0.1495454432569449 2.1932105111461873 0.9754328498955377 197 155 107
0.2031390688088880 -0.3507022911803329 2.0214316311802598 23 23 21
-0.1495454432569449 2.1932105111461873 0.9754328498955377 197 155 107
-0.6455328040744062 0.1467145034297703 1.9061137210230958 109 111 108
-0.3483902623086607 2.3296667490650682 0.7358748842604046 180 138 90
0.2277443272415335 1.2153207945145226 1.9085296660849806 135 103 80
0.2277443272415335 1.2153207945145226 1.9085296660849806 135 103 80
-0.0325433340231026 2.7980215178292038 -2.5178025986470027 182 175 147
-0.3549314216214323 2.3320147938658846 0.7271571100467470 224 183 131
-0.0174190979739567 2.0313360929849273 1.1296441566768991 253 211 161
-0.1163649998507303 2.2077639702248946 0.9434194545236675 171 133 97
-0.0968875768441386 2.1769528780868086 0.9390755264063346 187 137 86
-0.0074342605623547 1.1919118815537253 1.8354258399149814 135 101 76
-0.3467997070245866 2.3284070603356652 0.7241118778747377 176 133 88
0.2267893750824537 -0.3898647944748669 2.0703475431978515 15 14 12
-0.3880097543139154 -0.3247955593870794 1.9068599829571045 76 77 79
-0.3874434287981090 -0.3241307822112464 1.9057635981340635 76 77 79
-0.2479603086640498 2.2567429582831475 0.8393723903494215 186 145 93
0.2198300083294366 1.2212231381153054 1.8738459609144702 119 83 61
-0.4759216287066323 2.3843340191625519 0.6476032734322281 197 146 91
0.2289417711996563 -0.3929277277328170 2.0661729309773222 26 22 21
-0.4638555799308731 2.3686711169599475 0.6295799711409141 226 176 123
-0.3566521599741358 2.9907878217378197 -2.0698627700254093 129 109 82
0.2289417711996563 -0.3929277277328170 2.0661729309773222 26 22 21
-0.1155792186708297 2.2115805690470673 0.8813656081757161 188 150 113
-0.2984079307470877 2.9631500334723277 -2.0405886903209391 86 68 58
-0.8541710175040712 1.7456050745315379 -2.6912652368967054 244 175 229
-0.4796781772075092 2.3758357779097383 0.5915041646526079 231 181 122
-1.1974667175757729 3.1117639754012365 -1.5933296143138218 217 213 202
-0.3029410200076020 2.3002894695264482 0.7092246012802783 190 147 96
-0.3951810907804053 -0.3305992660276663 1.8941033997537107 169 170 172
-0.3252122622521001 2.9634007091639480 -2.0853431009758383 93 73 66
-0.5013319303825423 2.4243489399979476 0.5291693750008779 248 207 151
-0.0333662236435474 -0.3535524707857374 1.9507736366352126 67 67 69
-0.4747112166783304 2.3690388064528993 0.5881011364005407 166 119 67
-0.1810576485664293 2.2168875181029826 0.8051237618137265 178 135 84
0.2781491043453226 1.2267356705737511 1.8306341933964385 128 93 71
-0.1810576485664293 2.2168875181029826 0.8051237618137265 178 135 84
-0.2963602142871361 2.9498893276083069 -2.0831749277343334 83 65 63
-0.0445994142850948 2.1409835053972870 0.9039559304726684 179 141 94
0.3793527695631433 1.2307475037153783 1.8436932922505520 129 97 76
-0.2977484865913145 2.2872971541125224 0.6808206525737620 187 151 103
-0.6065008707830242 -0.3249853918708355 1.8607970137774916 69 72 77
0.0349860781120164 2.0531282402912092 0.9964967926981270 124 80 35
-1.1648916637734843 3.1084529543241737 -1.5990770315484317 209 195 184
-0.6062808137720527 -0.3246144001458233 1.8601563378198713 69 72 77
-0.4758483806508577 2.3544869572883771 0.5599750874512427 234 184 133
-1.2131977939966183 3.1136867409626316 -1.6245093175558276 84 101 91
-0.0045649329894945 -0.3715139632001342 1.9648676089042665 69 71 68
0.1262658576062391 1.2011619830658740 1.7806347924920740 131 104 85
-0.0059947393612404 -0.3722795801007148 1.9662065135932898 69 71 68
0.0649358662358022 1.2020213839832017 1.7580368653077538 114 82 59
-1.1120789407992495 3.1155900720780987 -1.6014856446449697 177 162 141
-0.3407728856335215 2.3182213482381133 0.6281762770420458 172 128 79
-0.2505641686828005 2.2549413669356744 0.7058960986836468 190 147 96
-0.3976297340502336 -0.3480535760298026 1.8966020955685550 180 180 178
-0.4794115130094274 2.3602210343443661 0.5378304786611769 166 118 70
-1.1383009633721801 3.1089599996974613 -1.6049523666276140 136 119 99
-0.2429326485889471 2.9616228829384030 -2.1215680613592247 187 166 135
-0.4794115130094274 2.3602210343443661 0.5378304786611769 166 118 70
0.3511403248481234 1.2324252451829552 1.8019766615548616 125 90 70
0.3520530977927218 1.2341733625165179 1.8008918184271574 125 90 70
0.0282802302332620 2.0719241430626067 0.9362797799944778 85 45 10
-0.1907455552054929 2.2076120011038465 0.7523209157081130 189 147 97
0.3533584148866307 1.2318517720938753 1.7941074783316346 180 145 123
-0.4659193717547908 2.3551080454781967 0.4954704139465722 153 112 66
0.3639010383649239 1.2338512897999037 1.7880636328482933 134 99 79
-1.1276558371058270 3.1174682140390875 -1.6317819409931034 186 169 151
-0.2662684532997243 2.2614077251192839 0.6229300238803155 233 192 148
-0.4696545790135728 2.3605693323897654 0.5052095638201939 145 102 59
-0.2662684532997243 2.2614077251192839 0.6229300238803155 233 192 148
-0.1508817009193576 2.1892646202341237 0.7255617369972933 202 169 154
-1.1647940558560765 3.1185613622067012 -1.6484819115316944 141 124 114
-1.0002059646281503 3.1084149476962613 -1.5953978689069557 218 166 144
-1.0002059646281503 3.1084149476962613 -1.5953978689069557 218 166 144
-0.2725228576487616 2.2663295305628037 0.6144850331925461 184 146 99
-1.0079006289521308 3.1108158342328185 -1.6045657117949166 156 93 76
-1.1155836872226288 3.1159973726704018 -1.6478657420814964 135 118 98
-0.2768231878824644 2.2684257195739623 0.5973377992046317 191 146 91
-1.1278299949275947 3.1259460136794956 -1.6695626487652913 142 125 107
0.2789232313364862 1.2410078162234275 1.7216742705188091 135 95 70
-0.1428707412239048 2.1886140316271820 0.6978305091874591 186 147 116
0.0021493001985597 0.0354975142089001 2.0349259693484187 5 7 4
0.3948989238081110 1.2434822904691409 1.7413783522862165 137 104 85
-0.1583696710377806 2.1952390091592178 0.6719932821434326 193 149 112
-1.1558332422852311 3.1228126262973741 -1.7091376471602766 102 107 87
-1.0312450844682775 3.1267048006173406 -1.6984983444818138 159 108 91
-1.0725402886675133 3.1245687589697866 -1.7187654281415836 186 170 137
-1.1729385357375450 3.1401909412459577 -1.7987528052965993 103 111 88
-0.1418750931191871 2.1908449123231475 0.6430478978486495 205 160 118
-0.3961034354040356 -0.3904822912606093 1.8937731208927575 65 69 68
-0.3962225923347057 -0.3907059179298755 1.8941672521132540 65 69 68
0.3037566625309870 1.2416213562243674 1.7021454833737730 187 151 127
-0.1424602214140682 2.1950693260369767 0.6560453995275410 116 74 50
-0.1332787940851357 2.1862716730868295 0.6245560462474384 160 120 84
-0.3293561577378287 0.1687578572183905 2.0298616225738462 13 15 14
0.3013601034570787 1.2521770545050026 1.6338036261256472 128 87 65
0.2866292297837004 1.2535286169265301 1.6252133600428988 129 89 63
-0.4350190453825100 0.2224837995789476 1.9155541092509494 133 131 116
0.2866292297837004 1.2535286169265301 1.6252133600428988 129 89 63
0.4542817490603812 1.2569545632039882 1.6623869972001346 118 85 66
-0.6220543248334924 0.1507510539359694 1.9149034908572855 63 65 64
-0.6104359936095719 -0.4021962340047299 1.8368388547442163 79 86 94
0.0018467950823797 -0.0602119805346772 2.0242971086104138 195 192 185
-0.2739767586974960 -0.2103061334191076 2.0003600367528813 189 77 76
-0.1706087204564691 2.6829640460390412 -1.4165899948397558 90 88 89
0.0140051399664710 -0.0617366486028862 2.0284514973086720 19 18 14
-0.1713750350659249 2.6861051158377300 -1.4485794215773891 88 87 85
0.3213093195336815 1.2613121194284496 1.5528359016377622 143 111 90
0.3213093195336815 1.2613121194284496 1.5528359016377622 143 111 90
0.3059290461387825 1.2603538660810427 1.5487645739975913 135 98 79
-0.4225890012085836 2.2423919831101760 1.1361097025697999 243 204 161
0.0374401896697540 -0.0987503777369039 2.0322103556173805 66 65 61
-0.4601749172064171 2.3323950063456209 1.0400624859966532 247 205 155
-0.0438166137763196 -0.0811701635576577 1.9779537319472684 12 14 11
-0.3000182829338321 3.0155105888442653 -2.0303496243173624 218 192 157
-0.4431042488754101 2.2975651827496155 1.0700372191819081 228 187 143
-0.3217484968018712 3.0044842504411942 -2.0282353715390355 221 198 164
0.4797447838969568 1.2739264679735656 1.4995121567884806 131 99 74
0.3313577869752197 0.0967474794918683 2.1260142954590955 68 68 66
-0.2936560475197009 2.9947893175007714 -2.0180515409311521 89 66 48
0.2422107212178126 -0.3595188154922292 2.0922089604462850 20 19 17
-0.3352484739978539 3.0132806365859324 -2.0554893958391411 215 186 142
0.2221803957503945 -0.3613347522455607 2.0617405704946861 36 35 33
-0.3888846773123170 2.9979109117084946 -2.0616817417979076 167 145 108
-0.1425674424581185 2.2814723788435174 0.2330357297702105 128 115 81
-0.4090493277722618 2.2475206629301376 0.1287968401784439 158 145 128
-0.2962161432343144 2.9689488763062979 -2.0216799490754864 94 75 61
-0.3074905129899129 2.9674920884645863 -2.0247716132975695 253 234 219
-0.4011724683515101 2.2615353857917944 1.0964274008805042 229 188 144
-0.2535706579266299 2.9855233082207855 -2.0409598760849184 115 106 99
-0.4448144067079589 2.3263221914649312 1.0284072029546363 207 166 120
-0.3891182961941390 2.9823366363460626 -2.0662909560550324 237 213 179
-0.3802281656044212 2.9866937405927416 -2.0696347164757221 136 113 81
-0.4087881361286753 -0.1119233047022634 1.9232190676478580 68 72 73
-0.1293783734455171 2.1022201112221501 1.3054637606654078 148 100 60
-0.2775722583645374 2.9662795856665127 -2.0311460281520182 208 184 160
-0.4596073253024400 0.1098144329577402 1.9215464719988449 0 0 2
-0.3828343614663614 2.9681529268811504 -2.0763650107450258 255 243 199
-0.4586144977291996 0.1063961533610719 1.9256718939859749 203 203 201
-0.4448838272801965 -0.1229306740101924 1.9075689313981183 27 27 25
0.2303098631588497 -0.3896987032165394 2.0718256444865983 76 75 71
-0.2981554265188589 2.5394559514921800 -0.1985026168739972 226 222 211
-0.2515937533685543 2.1407460329635657 1.2165753749634167 211 170 140
-0.7577396820890453 1.7537821441207015 -2.6826457659041538 241 174 227
-0.0336525524576784 -0.3481001843103547 1.9523961323226018 66 68 67
-0.3162636663669822 2.1795094065845637 1.1508926275115774 164 122 84
-0.3049872141269432 2.9406324314425647 -2.1229983145647058 255 247 207
-0.0657197179255486 -0.2149968463143540 2.0425803549161548 61 62 57
-0.3161208180201218 2.9292201755805065 -2.1150983720406362 76 54 33
-0.0630438403476891 -0.2186540604643483 2.0430520478225129 11 11 11
-1.1774212046487491 3.0374607582103410 -1.0305598299602401 112 111 106
-1.0910894250080529 3.0503460784147562 -1.0541782296518649 107 100 82
-0.4647386172364176 2.4077177736055009 0.9137292809736272 247 204 153
0.4697342032659345 0.4263120221122927 2.2295148132764995 189 136 82
