ply
format ascii 1.0
element vertex 699
property double x
property double y
property double z
property uchar red
property uchar green
property uchar blue
end_header
-0.4878701477919357 -0.0195351449526799 1.2831637952486565 156 114 76
0.1503588870543677 0.4717800800766800 4.2529134367579937 212 151 97
0.6449014263325497 -0.2569528523848887 1.4106162675313545 186 190 215
1.1292880372985976 3.0293587799209925 3.4477187231957789 187 145 121
-0.0613246148799410 0.0645801283361874 1.2172509880663538 178 157 164
0.4945375528849464 2.9898366457810837 3.6854026304361112 183 116 61
-0.4213979445008475 0.2075521269678320 1.2442870172249083 117 99 87
1.4558818311135888 2.0565925193569958 2.6599580394007716 145 103 61
0.8824456330201895 2.3773404676803955 3.7206435148682022 152 102 67
0.8382423153127885 2.5164523556610741 3.6969805938340645 209 175 150
0.7612404454899101 3.0640119062428117 3.4497793095956735 147 102 71
0.4208731746057850 2.5618049561675549 3.9122128993096412 255 210 156
0.6131723632661256 -0.2118579813406486 1.4059701573826422 30 35 65
-0.1428919968522031 0.0932217483939100 1.1702405656996526 67 59 82
0.1950486288923108 0.2501514539320213 1.5784798194802789 28 23 43
-0.1846102042433649 -0.1818205240256087 1.2219671230333640 20 18 19
1.2188738369999903 2.8906390990216737 3.4120665931484488 201 154 124
0.6870743940718878 2.6059672603761079 3.7295812773558485 209 155 117
-0.3604311844836552 0.1957030348945212 1.1940583602715629 96 92 93
-0.1177898325685571 0.1368582040496019 1.1411321199485582 40 40 50
0.1179076899205133 -0.0384691485067886 1.2813772249836886 125 97 86
0.0879889409400406 -0.0114821936554114 1.2802475490858425 211 192 194
0.6183889569758930 -0.2615358754532159 1.4127815512401229 138 143 165
0.6473181819055077 -0.2591023016850854 1.4113375702282529 128 133 155
0.5135608874539520 -0.4250851595237278 1.5194757203718194 13 6 13
0.6923595452462971 -0.2660685993780475 1.4096916909801069 100 100 124
0.6186676948837713 -0.4087257531614999 1.5170523033124474 44 21 13
-0.4239812882077226 0.0063289201874083 1.1963091131193415 109 85 59
0.5690471148873012 -0.3897216839226023 1.5016402933116242 122 120 125
0.5817931210320988 -0.3766016096889575 1.4802004611900395 115 106 111
-0.4894843182512185 0.1788655626923647 1.2863157126837037 93 66 49
0.5917452081069166 -0.3681728114173011 1.4697825013001864 38 27 33
0.6028607036764674 -0.3629267881366326 1.4688866077123841 42 21 18
0.6294928351818941 -0.3654185713145556 1.4677851435985334 119 99 90
0.4298112072339886 0.9377315003254595 2.3879938011069934 206 159 117
0.6123008213319006 -0.3512493341324815 1.4617796931304172 104 97 105
-0.0917030277416015 -0.0753247888950408 1.2336073760864583 121 103 93
0.6003141667159068 -0.3317731073722480 1.4431253072599390 146 148 163
0.6074062665089629 -0.4144055201224143 1.5241922733794022 49 30 24
0.5893924196537050 -0.4071448130007330 1.5101621786223627 46 28 24
0.5312712660247608 -0.3017378288519756 1.4432716572522251 96 104 141
0.6491928052827300 -0.3047270092632237 1.4246852174441245 79 69 103
0.6514775540868862 -0.3039711244505004 1.4231783870800014 141 145 157
0.6276027717210138 -0.2999203100094002 1.4247105794876693 100 107 126
0.5798111030116666 -0.3917643015841653 1.4983283990125558 39 33 33
-0.3515041149369453 0.0637771047500484 1.1092531107641779 62 58 59
0.6728889870430418 -0.2969392876623392 1.4319455551354727 39 46 64
-0.4947329766184100 -0.0761702869487461 1.4371894827438496 220 197 166
0.5955659082204956 -0.2784760543241842 1.4244636980520493 92 94 115
0.6180390240826268 -0.2683984056119897 1.4123735572757252 193 203 228
0.6192789418446294 -0.3537505706260398 1.4522570374965216 118 99 93
0.6906713091529996 -0.2397636911367048 1.3997913451316768 183 207 233
0.5382013293061674 -0.3251296342767620 1.4610194656276236 96 101 133
0.5891845924818941 -0.3140701647381801 1.4438575996976315 89 88 120
1.1620618287671032 2.5666918973785173 2.9722742727859299 184 146 97
1.1616995771996923 2.5305423925826753 2.9366973508073975 159 119 70
0.6203227071427080 -0.3088262470103557 1.4298932219688842 114 114 138
0.5180777710078088 -0.2595064456468922 1.4307146034441194 96 90 118
1.7111427249631594 1.7501540391661334 2.3032561835335330 110 75 43
-0.4497771171803744 -0.0489347894135671 1.2314997174577003 26 22 13
0.6194343010162674 -0.2669050709930670 1.4188391161249378 86 92 116
-0.4237560087168186 0.0181200676086383 1.1851982256914511 113 87 62
0.5415849910858560 -0.2405331649300629 1.4085783566555528 141 147 181
0.6591734732038261 -0.2485296817200847 1.4026130489320878 93 97 126
0.5908905992869026 -0.2236980634800134 1.4051522176737847 151 160 199
-0.4578911914406134 -0.0208624124737151 1.2354808233188215 127 100 70
1.6484286252510314 1.8098095135363537 2.3886121734300336 189 155 109
0.6582827261733820 -0.2883341600811178 1.4177003862415376 172 179 208
1.3512133978257872 2.1624508621742176 2.6455134264345959 111 75 43
1.6107944734658912 1.8544550766404722 2.3966674667188501 168 130 94
1.3805622631289391 2.1409532144756120 2.6162844054470864 113 73 47
0.1958224767398211 0.2787192833613519 1.6116604578723519 85 81 116
0.5797917348428230 2.3813152309655270 3.7761532035130378 148 102 78
-0.1928508874834703 -0.1720261196569552 1.2550880590125495 30 20 31
0.4148736931736607 2.5764833684801882 3.9832744340850548 249 199 148
0.6873708478757050 -0.2741454084189439 1.4192319757828542 135 136 156
1.4074128543299316 2.2090432953560457 2.8337228044319436 141 102 69
0.5948238568735336 -0.3324740270725650 1.4440418004368034 90 96 118
-0.5519086281029122 0.0288199924020251 1.4469486277321852 190 165 134
1.4561737489913722 2.1299409974233190 2.7551136483734413 124 84 49
0.5203977169407848 -0.2866627530986456 1.4402605571082752 201 211 246
1.3739811155286124 2.1675367749087968 2.6617690316003837 180 145 105
-0.3536833515955217 0.0994948519293617 1.0994187909372684 66 56 54
1.6045009540254991 1.8603125983514242 2.4073285285680810 105 69 33
-0.5043119233487062 -0.0469154117682026 1.4062368341104197 93 72 45
1.3304720023248224 2.2197457412461432 2.6908157902322865 118 80 44
1.3946891536905781 2.1323469584444492 2.6121751677202805 191 157 109
-0.4618440528900175 0.1553796273213566 1.2762516175067897 153 123 97
1.3855240377135172 2.2639846656589024 2.9393481733939097 92 57 29
-0.5634496517136951 0.0502020192405791 1.4466546357405128 77 59 39
-0.5744780034111878 0.1078384817957095 1.3978700803028226 213 186 156
0.6033045141105480 2.0787935256717920 3.7424639003707547 165 120 87
0.1300030196758798 -0.0207341650423504 1.2943225288814846 108 86 88
-0.2005319871829012 -0.1791994908874491 1.2659309835765349 160 135 105
-0.2111618417230110 0.1086985679030061 1.1705288597109025 219 209 220
-0.4458323666018610 -0.0918136657914342 1.3203844322654739 87 77 65
0.6730127088088858 0.2991582791113249 1.3861435378508664 73 86 131
0.6866933296252788 0.2996378568090342 1.3983646998566883 67 77 128
-0.0744989229058597 0.0294042171427559 1.2181215762229236 181 165 166
0.6684842261373467 2.1615994925532545 3.7660784418011639 207 170 144
-0.3575977587786414 0.0857478105570858 1.1095017831399332 116 95 74
0.8758835128711522 0.6286773363581220 1.4512066506268662 171 125 73
0.6077111202478280 2.7123929863474490 3.7028284878326660 119 69 34
0.6698300879722718 2.5943593335243280 3.6729010604757315 211 162 129
0.5549160085771773 -0.4180368367521877 1.5237241635276302 71 61 70
0.5620742241519828 -0.3995610283550036 1.4978491423903091 25 21 20
0.5618945783317506 -0.2021049232576421 1.4126096982686553 43 49 81
0.1168676270573865 0.0041269240235154 1.2836007021038611 165 150 157
-0.4042512761850232 0.0704501371366916 1.1094352206727252 183 171 157
-0.2140733056755292 -0.1582696706955669 1.4244947220372175 126 69 49
0.1096272008097026 -0.1357262308435081 1.6884781501620898 203 147 100
-0.0959592917804555 -0.1202408887739442 1.4241197921353141 121 79 55
-0.5194344164619717 -0.0519201085215339 1.4036824049120726 229 205 171
0.1628790085314007 -0.1889371251124551 1.7251166542070520 42 35 43
-0.1915618058606963 0.2501119788201990 1.2444275269187075 237 227 202
0.0334090895423257 0.0383254652271981 1.2456172921825912 112 82 80
-0.4665146826074795 0.1406122719573520 1.2192928323825722 92 68 42
0.6159442631703911 -0.3902761323901161 1.4915205575370281 112 85 78
-0.3667217178889350 -0.1226341156291714 1.5306315127996375 184 164 137
-0.1349179575622090 0.1161295188765264 1.2089731870655465 89 62 55
0.2164754366453304 0.3516117056508805 1.6257339791861676 84 74 108
0.2720437650225701 0.0243722322547581 1.4724343961690103 56 43 61
0.6442376374384103 -0.2884485123594769 1.4179365897697902 100 114 143
0.6308589288148310 -0.2831587323077301 1.4229300372652227 93 97 124
0.7089041230718017 -0.2242458448651798 1.4034650234938064 126 148 198
0.5207996258679769 -0.3513327985869499 1.4575447991050463 90 89 105
0.7282040870068921 -0.2267003786994909 1.4024955473554734 112 107 114
0.6290906968613809 -0.3654839460579259 1.4669412651434013 119 99 90
0.5445497427007832 -0.3067572079118630 1.4413503686357194 110 109 149
0.5962401830802649 -0.2438805473281212 1.4145974235237426 85 91 113
-0.4839562714754223 -0.0298288197693600 1.3305940359807025 44 41 34
0.2317449464133726 0.3841529884878526 1.6221018615802660 106 90 127
0.5732776834147718 -0.2593558295393549 1.4254570890094016 139 148 165
0.6141107164550347 -0.2670799940650076 1.4225026544050039 185 187 210
-0.4969109060529907 -0.0165469117130822 1.3303743897802838 52 36 21
-0.4786843407950921 -0.0148379591617449 1.3055306723540607 65 47 35
-0.1341433738019778 0.1722527426215393 1.2173719346585379 95 95 105
-0.4775005404408650 -0.0179058176073404 1.2867616077452915 114 90 62
0.5167615037916409 -0.2344526520199637 1.4276692025098001 121 136 193
-0.1363416071423212 0.1716894962327743 1.1831567988629448 90 74 58
-0.1230624164716957 0.1483157631370166 1.1439509088308264 174 238 255
0.3899184709059574 0.4177877538900244 1.4098056856005436 79 92 144
0.5400062832677850 -0.2357187771269575 1.4178862504599989 133 137 175
-0.1324223267363597 0.1561935657331333 1.1869392526276403 98 95 116
-0.3499246600358182 0.1934213102714422 1.1766272242214464 175 163 151
-0.5791037342198193 0.0833532412439042 1.4150724611753502 169 145 117
0.5903835719459384 -0.2449438150914247 1.4140408973709941 94 100 126
-0.4638839528778065 -0.0091426446012175 1.2562550983346630 125 94 63
0.6011346567282070 -0.2465464258395577 1.4098956084630956 107 115 136
0.7220298919090647 0.6566107688131514 1.4373464405418572 35 43 92
0.6870907133984500 0.6971518767328428 1.4599644579320830 59 71 119
-0.4124541970170902 -0.0233892257471689 1.1628253419957673 97 78 61
0.3795239778803713 0.4379916379408784 1.4251455189424416 24 21 40
0.5679294537498124 0.3994657670849964 1.3627893726952649 67 76 107
0.5518428574801261 -0.2842552410764437 1.4402063702995831 193 198 220
0.6411199550415544 -0.3059615547880801 1.4235503343716882 61 59 80
0.5401425137576283 -0.2101921084745857 1.4155150967718639 129 134 172
0.6148853184925397 -0.2846276884433359 1.4210959068614073 158 158 184
0.7035421670158419 -0.2410165314336424 1.4006317892537044 93 102 145
0.5969105230804739 -0.4153088312323536 1.5453859450178333 14 12 13
0.6825503105891600 -0.2276624355555003 1.4008544186454619 113 127 176
0.5630450702849483 -0.2783569048936474 1.4302954517410129 84 83 115
-0.1469372440408850 -0.1286835284566265 1.4850372987261562 104 62 37
-0.4867088900586093 -0.0276545160856983 1.3411653570948863 56 41 36
-0.5096298647180848 0.1530994938911315 1.2642854463793094 117 87 63
-0.4881603994605700 -0.0796528666885936 1.3988061409189012 80 59 38
0.1879946875986282 0.2818580365756086 1.6185985187340806 88 85 116
0.6075665266724325 -0.4182628163377439 1.5374726807194885 27 15 25
0.2607825204950456 -0.0575168168105679 1.4850439936641149 61 47 60
0.6792439682809349 -0.2791605732512994 1.4154092959509930 109 110 131
-0.4618164442449272 -0.0259149671820972 1.2547591967494978 134 108 81
0.6359117755416521 -0.2733296679715527 1.4161701590937079 169 178 207
0.5921901638995586 -0.3863890671031911 1.4916958839706722 113 91 80
0.2330208945110189 0.3839517278113386 1.6138388561234078 88 82 108
0.5287547181308043 -0.3633222341570449 1.4688248624365665 102 99 118
-0.5270049089339001 0.1090396585089184 1.2730115066231158 130 102 80
0.1254675119094445 0.0147036983216815 1.3029922857755476 149 139 148
-0.4515376575877756 -0.0859669543317597 1.3329710520352351 94 87 69
0.2582243642765703 0.4148799828604177 1.5944593853249514 98 94 131
0.2883943144526820 0.1225931265847593 1.4789606859773838 22 19 46
0.6604717114116898 -0.2502274810433884 1.4054761934083120 86 89 120
0.4221783522769406 0.4013152903632379 1.3977156775139017 59 71 113
1.3026028999057808 2.2243522112745415 2.6133571191510350 159 120 91
0.0889265057146597 -0.0924139017139553 1.7221592583096137 201 146 92
0.6292118210638660 -0.2242126964522959 1.4039762600438215 102 113 158
0.6662898979866477 -0.2251114018610594 1.4060130890535458 111 131 182
-0.4682699549906384 -0.0280929901333616 1.2843552581815421 141 112 82
-0.4787772963252033 -0.0097706775755157 1.3042758428252588 64 48 33
1.1770631398236691 2.6600207221123231 2.7452502803431384 227 186 140
-0.4465540415270755 0.1809774736784450 1.2176758622194781 192 174 150
1.2000677798906030 3.0752372722453547 3.0472725026998710 138 104 79
-0.5790754181318112 0.0770245965344505 1.4323723435485745 175 156 126
-0.4318929707619502 0.1828160858286455 1.2199044240837609 214 197 177
0.2769753544878821 -0.0278371777117116 1.5125354925782646 52 48 65
-0.5146714188578867 0.0329889257120469 1.3378679220081806 114 86 62
-0.4840984280858268 0.0244021494755200 1.3125329715577292 73 53 42
0.6204058564817106 -0.3173102734773518 1.4350978834054491 180 183 202
-0.5277379015481559 0.1353126864346960 1.2723020352864551 239 216 184
0.2851763570176484 0.1284080867484257 1.4805987012729183 18 19 47
-0.3564031279587189 0.1158955239485930 1.1294280820924165 129 116 110
-0.4943576271642725 0.1274492906895317 1.2486853092947880 164 137 110
0.1917655050796831 0.7248550158214624 4.1858350611327415 167 104 60
0.2571888701769641 0.1823471240579872 1.5135607492639767 15 13 37
0.1827833554903993 0.2547212089521291 1.5928183184031741 35 31 46
0.2323077203909219 0.2131750198038183 1.5387336840185242 21 13 34
0.2030841799736467 0.2343924214942035 1.5575050128521426 22 20 41
0.5340273297179867 -0.4249944295680926 1.5233652626954630 18 16 17
-0.4429848458997119 0.1693040928938540 1.2314411594558892 86 69 59
-0.4339305974947403 0.1546136139328888 1.1994328339930849 193 176 156
-0.4505735540749888 0.2145346286777051 1.2515679927566747 203 188 165
0.2502064643902699 0.4233928168183124 1.6422749699530799 103 89 115
0.0806264783812203 0.4676907244707955 4.5716763021267441 234 171 118
0.5771621920240928 -0.3966548572282013 1.4989510605267931 161 153 151
0.3962691571772783 0.4061636382919992 1.4004155377083711 69 77 113
0.3653713067906636 0.4288744935074746 1.4189571518349100 59 72 117
0.5976852404568809 -0.2235819843395791 1.4096009280951867 218 229 255
-0.4835852606575577 -0.0604542212230879 1.3405434528186022 107 86 69
1.4027317390262821 2.1253198320255366 2.5846528640735902 180 145 105
1.3536876030316167 2.1846856071617617 2.6128064646734965 152 116 82
1.1616305481389975 3.6412641601536264 3.7471819931183039 162 137 106
0.6385120981489810 0.3360091310478024 1.3966369016803604 67 78 140
0.6002839763155077 -0.3183351872628691 1.4422234769448603 96 92 119
1.1099107701723228 3.1670514074782758 3.4969794334608233 205 164 136
1.5777302840763816 1.8459350112852511 2.3288564293106080 170 135 95
0.5946100186035729 -0.3543615435857400 1.4603956644142844 173 163 162
1.3940836424966014 2.1217039208351336 2.4884619305935241 106 70 36
0.6099531275134509 3.1801422925458604 3.4295897908786959 173 125 89
0.5578895532578662 -0.3446122367206887 1.4583105407162698 183 189 215
1.2841550216111062 3.1698895285735147 3.4603603884490575 205 162 130
1.3826345480954612 2.1459078276197037 2.6370437061178791 188 151 107
0.6144558104627734 -0.3444150463637430 1.4487214920235860 163 157 169
1.1760867297626330 2.5015937070239751 2.8549680394374466 189 148 104
1.3815901104561958 2.1499244497736272 2.5455942112890182 155 121 83
1.1654335617440963 2.6764383680540726 2.8520519789948886 213 171 131
1.3617287539351168 2.1843996128323386 2.4657169802544718 200 162 115
1.1393065031899439 2.9182082726342462 3.0045870988391168 153 117 91
1.8424473650630409 1.6745220831442700 2.1374254958213457 154 124 88
-0.3684832557188504 -0.1376034640754546 1.4999575702794683 84 64 39
0.5221129307643797 -0.3145379968147624 1.4436798578954477 118 129 175
1.1569143631041598 3.0432251318415835 3.0575284987242264 168 138 110
-0.4584454520061673 -0.0605614490357572 1.2537343831217302 155 111 82
1.1390708620924388 3.0977754203139374 3.0823263442142923 163 123 88
1.1994783405471681 2.6468785257764536 2.7487208918789947 219 182 130
-0.4984774377994262 -0.0178629333884992 1.3231765239695925 116 95 68
1.1385843810501215 3.1358528072408691 3.0909076859279287 240 208 185
-0.5830637607139662 0.0704952531581549 1.4523574987354979 121 97 69
1.1823764486569652 3.1090457636585311 3.0421658061224126 140 116 92
-0.5028377695318028 0.0058867314791892 1.3305963232235509 156 114 76
-0.5746052988742262 0.0688695840881583 1.3960819159399411 115 90 59
0.2189061337487352 0.1213983863439079 1.6898116747147076 158 140 136
0.5125434252748388 -0.2921350119595807 1.4406656929356212 117 128 174
-0.5744357787542849 0.1067832446564413 1.3733630212306829 149 119 91
0.1961698631276515 0.7639655688605739 4.1589292834292788 151 85 37
-0.0326187828250637 -0.0327470072099555 1.2020040242267100 138 95 88
0.6503938342511509 -0.2466451249536623 1.4082096956361962 183 188 210
-0.4866552208368866 0.0904380921434200 1.2608089588291342 47 32 29
-0.0343336256822249 -0.0115228530156242 1.2009942735398020 148 91 80
0.1756662723843762 0.7671923069503777 4.2158339840943189 150 92 52
-0.5249851706543753 0.1394732320597775 1.2783612773132167 115 86 54
-0.4339239792230400 0.0569320548655527 1.1599125873137117 141 109 86
1.2575854629897600 2.8354976386121282 3.4065945277534935 117 83 56
-0.4603006100287451 0.1560785023346747 1.2063183917136253 127 99 78
1.2726841500140700 2.9940721670631301 3.4365354664141829 164 117 91
0.8324620538062736 3.1131274906016135 3.4261341346536667 169 126 94
-0.5813920601514669 0.0718808941587201 1.4227409721186817 109 82 63
1.1459434752948159 3.6614670524132800 3.7763124703571842 207 176 145
-0.4541639494280952 -0.0086168009314316 1.1720720775922508 104 79 57
1.4012975560905652 2.1293331052766318 2.5645216793376227 95 61 34
1.3195843302329089 2.2257894030819712 2.6299320935182178 114 75 44
-0.4298001904921360 0.0599214962716025 1.1648744391058106 99 73 50
1.3221029991969149 2.2181346420349124 2.6019727141787867 171 135 99
-0.5200870708936273 0.1414276706562001 1.2630707324589943 123 99 75
-0.5008174119988743 0.1310959511975615 1.2515084780593495 105 75 51
1.2285342466178704 2.3069214370709137 2.6298866668729759 193 159 114
-0.4928198395774517 0.1677662623716617 1.2644430007880751 143 128 105
1.5373999584768685 1.9156300964665602 2.3543852393407088 193 159 113
1.3078356609211910 2.2315575661276674 2.5663701883921819 170 131 90
1.2907578248989264 2.2452945409022940 2.5739335556012874 111 72 43
1.1730119399342409 2.8496304130357988 2.9326375929258317 154 119 91
1.2895191760595517 2.2481528805387057 2.4875018680855212 117 79 42
-0.4734488118464597 0.1600558136009380 1.2276143561244055 130 100 74
1.2917892002883586 3.9909461758014380 3.7107481790217971 218 164 117
-0.1257937469571018 0.0959226438296726 1.2114674966758232 123 117 119
-0.1321434234620317 0.1009156192364919 1.2105751437497596 112 105 113
-0.4291614447144277 0.1839938552313778 1.2271122404600057 114 96 84
-0.3533658825239743 0.0956660458328864 1.1220651091255454 65 60 57
1.3411774798612413 2.2027648446954999 2.5565480075917351 178 139 98
1.0918426221891990 3.2159322033361128 3.5210801407878263 160 115 86
-0.1447741218846454 0.2096848748504220 1.2803965555956247 228 213 192
1.3707481341519063 2.1936765120722215 2.5343460960595050 105 73 35
-0.4944800565324451 -0.0553085308908440 1.3586155642356983 69 54 31
0.8979239173652211 3.2294394924778547 3.4602712391305417 218 177 147
1.7238317869079915 1.7584520096192497 2.2302142757213859 153 120 87
1.2270819040406264 2.3118954533739733 2.5882950195603742 126 88 52
1.1753868505516518 2.4891043324379800 2.8834705774699509 228 192 142
-0.1176899853380728 0.1294186325621565 1.1548454281219882 207 180 151
1.5054679656291632 1.9485914732743710 2.4426595841307197 203 167 117
1.1625261880276270 3.7116116118233045 3.7808079290119223 206 179 149
1.6114392169606435 1.8431883454770308 2.3459297092404303 105 70 32
1.2081880534615128 3.0834463988137322 3.0158243322631377 130 99 78
1.2509010698923604 2.2995613066900464 2.6388324286611105 101 66 38
0.8019748948164734 0.5278031750327977 1.3791218345623497 44 56 94
-0.4576472039042738 -0.0555909053379068 1.2838270642199503 27 23 20
0.7022470597040391 2.2423008904028530 3.7477492353904496 207 166 134
-0.5385355774130778 0.0135471566051658 1.3945151639946500 143 121 97
-0.0525881647531847 0.1082710681260977 1.2416291371315651 199 183 193
0.3533536852558295 0.1812637788617263 4.2010855880749478 193 140 98
-0.4451548085295767 0.2276502451031338 1.2493456350573877 242 227 198
0.1578855118920670 0.4545472000334990 4.2904593774048791 160 97 44
-0.0441755458175984 -0.0573573829715252 1.2379561973017308 72 39 30
0.1377565694831484 -0.2703204041069956 1.7723597972273060 45 34 38
1.1033218381727656 2.9134079078191184 3.4214623291426562 188 156 135
1.1543451777525899 2.9829616479330245 3.4240622918172252 218 170 134
0.0955589835409499 -0.1412856075983190 1.7419810510308551 211 150 103
-0.2168630126032466 0.1684592499598732 1.2129936322406176 195 179 180
0.3261012288722329 0.6370479771780437 4.0773942027914849 159 93 43
-0.1937222179342981 -0.1311521204049408 1.5584417333830725 143 89 63
-0.1972755817518086 -0.1259753946059552 1.5445587119917357 171 117 89
0.5863495800908185 3.0886675897032427 3.4032434756995977 153 105 69
1.1641503957652346 2.5572789975104593 2.9491169348778139 172 130 88
1.1248936113381589 3.2271912058432766 3.4739412494965971 115 79 53
1.2480639070431896 2.2960986397098053 2.6785757903106204 204 167 123
1.5298557546107525 1.9648108798468271 2.4154778286263299 194 157 112
1.2974534230918806 2.2771370137983866 2.6916277607846206 120 81 48
1.1685946296435925 2.5652296852811420 2.8532255129028266 230 189 145
-0.5399171708650115 0.0804124589037671 1.3125537991468550 85 64 47
1.3543171085395063 2.1681209523655123 2.5530079077868280 162 124 85
1.3541160446971563 2.1678633771121008 2.5525308230968031 162 124 85
1.3006903295786925 2.2626340111213197 2.5532503184537680 178 139 100
-0.1277619395127087 0.1665775332285126 1.2488526852547281 227 215 191
-0.5634391361557165 0.0315734142071810 1.4228844102674816 224 201 167
-0.4223562330381089 0.0885290388096405 1.1654318856384125 143 111 90
-0.1709528337725015 -0.0912782589195101 1.2498507457205117 18 18 20
1.1253543286797807 2.6385005781303685 2.7895364742921633 253 229 203
1.3977202503148414 2.1634819570567996 2.6014639110990752 112 76 40
-0.0601898860100634 -0.0635955286220601 1.2291791027318337 151 95 78
1.7452682999456586 1.7314028693644616 2.2429620860406114 194 160 125
1.5514116824659752 1.9413158404317603 2.3583423623335071 195 161 113
0.6618962063230319 0.3240388595794065 1.3963852008239639 65 74 131
0.6220117911460135 0.3308876761135110 1.3907602352615027 63 73 126
1.3091384975840783 2.2407130762859091 2.4948997158012847 120 85 47
-0.1710289161068638 -0.1242294827454055 1.5868966273898137 233 214 184
-0.1863215588073673 -0.1719472665285289 1.2511467578947033 24 18 20
-0.4576444607424624 0.1725512717500202 1.2347221623318756 60 51 52
0.6743319459068917 -0.2552506033014286 1.4109944100372922 152 155 174
-0.2270800806537966 0.0726278625630706 1.1405414843343307 84 71 78
-0.1244791733900954 -0.1153426896505623 1.5057829677610703 136 90 64
-0.2252765082548071 -0.1296650818229313 1.5520314133582003 124 65 47
-0.4695674930580768 0.0929827103745708 1.2437444810559370 109 83 60
1.1588133134762364 2.7212890217426935 3.0475126550208027 237 200 148
-0.1340249235929827 0.1508279607942814 1.1470574441133994 211 171 122
-0.1690104709310292 0.0747920418561948 1.1647546253522909 55 48 55
-0.1357788776758970 0.1205348869518276 1.2145298905311757 92 71 68
1.3601501755766081 2.1843931781131793 2.7714879614104602 98 64 39
-0.3564898425658203 0.1786939719204719 1.1703350335682274 101 95 97
-0.1815775120630458 -0.1609343406715112 1.3314459890031314 145 98 68
1.3010504712906308 2.2149739951908045 2.7244507083227365 199 163 113
-0.2279706597725277 -0.1187726932325858 1.2783508314146708 67 41 28
-0.0839037626775028 -0.0643580217429293 1.2560528046342563 45 26 28
1.4250465695230827 2.0774561243044709 2.5295135772847166 190 156 108
1.3518138185197393 2.0994732547177897 2.4692762484778412 129 93 61
1.1806008850114269 2.9991972234349507 2.9928438936355684 152 117 95
1.1761616163928976 2.9256479269159033 3.0717380191530133 247 219 182
1.2405795144013176 2.2672617754163467 2.5855364945865076 130 91 60
-0.0469722250548330 -0.0937788214476513 1.2676530759523443 146 95 68
-0.4357569684361948 0.2907397297102949 1.3033001603064536 238 226 200
-0.5672251275734871 0.1248993724729567 1.3301421724075269 238 214 180
0.5341845409922171 -0.2269353841324820 1.4227802716171678 195 205 240
-0.5315373313927633 0.0968765571804233 1.4378214999422387 108 77 49
1.5077392703569314 1.7874586513803603 2.2849040114222960 132 98 61
1.1916876749693845 2.3928081713893832 2.5980989178482727 251 226 196
-0.1999124994994963 0.0893394813845340 1.1686722649154047 222 223 243
0.5530504910012458 0.3860816855863656 1.3753006460929922 18 17 22
1.2384995731355011 2.7906411490755092 3.4334509845245602 153 111 89
-0.2167432042750255 -0.0276614950042341 1.1674336237764269 184 144 136
-0.1847040648513523 -0.0922378229389680 1.2225815205719017 30 21 22
0.6543487868720840 -0.2608011177617939 1.4137606563568035 119 124 144
0.5063065821725937 -0.4233499152547398 1.5187640699678291 86 80 84
0.8119460355789732 0.5208412508300818 1.3827074265794663 57 64 106
1.1611610713742058 2.5488997001869733 2.9331019147654094 207 164 119
0.6384153176794946 -0.4073003047508214 1.5171822635607810 52 32 25
0.5823767790744593 -0.3933800553684665 1.4922348412633231 55 39 39
0.5387165185140063 -0.2016368824116759 1.4230930105720041 26 23 52
-0.1328279186054269 0.1663933721799157 1.1865084089251376 63 44 40
1.7187521620925088 1.7549373819702598 2.3422943334176813 128 91 62
-0.1235833296379353 -0.0473071840596131 1.2082452862713096 93 84 77
1.3407563355276937 2.1901299425740124 2.5696785847724000 170 132 93
1.6388286885405998 1.8561065901766405 2.3654092728488409 182 144 107
-0.1421429501652119 0.0708657347615266 1.1991483814205992 73 72 77
0.6374165805598487 -0.3560853713976758 1.4632248016993352 99 71 67
0.0300094002635028 -0.0219990290480370 1.2411286739493177 244 231 255
-0.4458729824668088 0.1660714182960009 1.2267561393364790 126 109 89
1.1147178632559802 2.5988402896620380 2.8110070157419922 246 213 178
1.8262493533487829 1.7795748366860238 2.2823375615473518 79 49 25
0.5328280009860502 -0.3097647526143525 1.4458077467808357 99 107 146
0.6398447822272419 -0.3044461801986376 1.4251540744010969 138 139 157
1.8658200450170206 1.7785886779303433 2.1262268924956640 84 75 76
-0.5229839005748536 0.1451633886802673 1.2604828606536465 191 167 133
0.5635940945270255 -0.2805216952926701 1.4268209246045445 107 115 136
0.8168889457622081 0.5005450364438734 1.3831205655402521 46 57 79
0.8087098710542930 0.5260781929372423 1.3821110338893843 56 65 94
-0.1317390439681218 0.0902763610778785 1.1915318153220282 71 42 44
1.1507549127429559 2.5798302411839606 2.9050710797513974 170 127 82
0.5590865976315136 -0.3934729783153413 1.4960608105638957 92 91 97
1.6189038066460393 1.8636286187393074 2.3433272203785442 176 143 102
0.5685022856459764 -0.2571935344418834 1.4221966446165084 55 62 80
0.5729792967217119 -0.2648077927687064 1.4244853063653242 52 55 72
-0.4360681636342040 0.1805770898100510 1.2203725350950412 231 218 210
0.5703251798574658 -0.2631918787184860 1.4228457370853063 127 129 144
0.5482805718145939 -0.2482197761039655 1.4170202813856454 75 81 103
0.5303020318982820 -0.3501896004124369 1.4602541393954807 101 93 116
0.5352634064507960 -0.3465472824445986 1.4546322847043476 84 85 103
0.5823193726153066 -0.2306016519738241 1.4109527790401777 124 127 158
0.8147656081742234 0.5146217995793272 1.3844401541699776 54 60 96
0.5071382389109127 -0.2056273666663142 1.4271105357815239 30 30 58
0.6447890048932782 -0.2230953594438052 1.4039376583637420 96 105 144
1.2413915635716823 2.9316711567453071 3.3974663672793821 196 168 164
0.6821874610656520 -0.2325580380165958 1.3961463397414500 207 227 255
-0.5816735951478845 0.0642656637506834 1.4547588816015737 221 204 176
0.4643094044338674 0.3809251744888964 1.3810633356657334 60 65 105
-0.5766715208763359 0.0661467495312232 1.3912659720120080 213 191 154
0.5910905233208641 0.3945702937189196 1.3710437158193725 53 60 88
1.1601784432399405 2.4787587187098876 2.8762788772044199 231 193 144
1.1530476622718457 2.5530725520954540 2.9181523624232857 174 131 86
1.1725128580482016 2.5240076880662432 2.8960168960539852 165 123 81
1.2672927682607020 2.3009415033244465 2.6780256376176377 114 78 44
1.3646275175285560 2.1713805185264881 2.5671017091585671 135 97 61
1.3702260891846001 2.1622736492471550 2.5585735429412133 168 129 96
1.2748649451121521 2.2230137858176371 2.5813925093597456 112 73 40
1.2997898447864114 2.2557703378364486 2.6093920195291771 168 130 94
1.7237504127472727 1.7774030369979352 2.3159808435468490 190 158 117
-0.0961208645093283 -0.0587078650997614 1.2396325853834711 95 84 82
1.5981185553584580 1.8943064531207789 2.3584813148296946 103 67 31
1.8267298231337858 1.7341660288791574 2.1408282977756530 163 137 114
0.6484564294926541 0.3807992495574479 1.3982725591642993 59 64 106
0.5882398721937039 -0.2676401867319982 1.4235457434505430 193 190 209
0.6317886727287610 -0.2425428044920711 1.4083881013045663 109 115 151
0.6296165608942189 -0.2438270357101989 1.4052008524086124 93 99 133
0.1888848113894578 0.7146853185195281 4.1586510029392434 147 86 41
1.4000438287745787 2.2299914405532251 2.8999703216930794 151 116 84
0.4114382997025607 0.4019297463209905 1.3976505170591764 55 58 93
0.4642093901208071 0.3937241090554668 1.3948099000319398 54 64 100
1.2418776914602563 2.8993167912314410 3.4131394772736634 199 166 151
0.8580559152802560 0.4582842106630595 1.4344171678324673 120 95 88
0.5929577067250761 -0.4093927327354782 1.5160297336516828 147 140 134
0.5601112838852157 -0.2444194137347874 1.4208332814610711 99 105 129
1.1621764348406307 2.5181051223581385 2.9092564659518372 164 123 79
0.8491036729683213 3.1513348815958788 3.4333177054657775 212 171 143
0.8328907127645715 3.2442075307256797 3.4525016496833807 148 110 74
1.1757098368816044 2.5021167402040856 2.8764889356175058 232 195 143
0.5406827416753289 -0.3457744405182153 1.4566717651054855 123 126 145
0.5042670940092050 -0.2099165657754364 1.4330544035699888 30 30 56
1.3750130956376065 2.1626064707729005 2.6411526429891601 111 75 41
1.2777965992337197 2.2680159676473637 2.6845679419568107 102 63 30
0.6010118759996604 -0.3529275414999890 1.4606337176141848 116 105 113
1.2753329611623216 2.2964340864820887 2.6903532429525296 109 73 37
1.3374982580088817 2.2075092611329432 2.6315058095537922 165 125 90
1.3915084489693865 2.1320208793002835 2.5907715356398429 101 65 29
1.3410298961264686 2.1616100978002013 2.5912743795763764 160 121 88
1.3560416611581134 2.1895375071477341 2.5941181694825346 108 69 36
0.5004234944622966 -0.3200043023556782 1.4437487328846301 101 108 137
0.5240403501546058 -0.3642918289702469 1.4742679064394759 92 91 107
1.3595955179863899 2.1820476184027631 2.5796878754198760 171 131 95
1.5016102731701539 1.9123683844907367 2.3992006242608834 133 92 60
1.3012992102160383 2.2332775713105311 2.5858560465665130 127 86 56
1.6994362197384763 1.7333598680780038 2.2741723699888681 101 67 32
0.5960764820723402 -0.2245746849071570 1.4070294246829596 219 228 255
1.2732790930810693 2.2447591806208225 2.5863710097528689 164 128 92
1.3995626568132511 2.1224417352648945 2.5074922932316799 179 144 104
1.1215000978617538 2.6195386841395405 2.8279033536075033 246 213 178
0.6461127611227558 -0.2308795664552110 1.4050790249001528 138 153 194
0.6189259252015539 -0.3255647604657468 1.4383885546395954 185 183 197
1.7462105800935466 1.7685713126756162 2.2927013621161114 126 91 61
1.2734929508065205 2.2734147436502181 2.5782306430642432 163 127 91
1.5903368176920052 1.9104718326558516 2.3276521492639808 130 90 55
1.7645265329492454 1.7330043467510441 2.2138534547022641 121 90 61
-0.4458353668413045 0.0636920749206591 1.1802517858332964 76 59 49
0.7050793810845487 -0.2311531206394455 1.3983439904095620 88 107 150
1.8576151998359118 1.7864251089204430 2.1277340137112954 193 185 183
1.3769039081261119 2.1280565209625482 2.4647852530947745 108 71 29
1.7158814610040642 1.8711642229002556 2.1579962241921855 94 69 39
0.2547960590831061 0.1785008885470522 1.5087383364218796 13 15 30
1.8472946739666363 1.7879992438571597 2.1108341144451539 97 84 78
1.8533110201136676 1.8102702310518466 2.1173421944396651 105 91 82
0.4885049467701891 0.3803320569483619 1.3837656299843153 32 38 70
-0.3588674397234621 0.0914475352180360 1.1264879297721984 64 61 68
-0.1737896817756865 0.0746076865867084 1.1426417960023372 103 97 107
-0.1319274013913600 0.1215051728999322 1.2042704331974978 132 103 95
-0.2458345987486942 0.0826485059442123 1.1187523830726858 135 149 160
1.2167618088809697 2.7393222221400619 3.4652759013903593 171 139 116
-0.4647481117342147 0.1452861095989438 1.2153101782419131 199 182 156
0.5526003970036030 -0.2804998000019067 1.4347880865039173 187 193 219
1.7700463216356226 1.8405460527276671 2.1199608624025976 92 72 48
1.7790604016283755 1.8330549535625835 2.1131662795486781 168 147 118
-0.1326258042918183 0.0863935604599891 1.1912180571601567 123 132 137
1.7562106175605399 1.8579069568107522 2.1077034724500776 162 147 128
0.5684831751622302 -0.2846803094155821 1.4342098237740049 84 92 113
1.3390629449829712 2.2765507143140011 2.9308486768421287 197 159 114
0.6837005968566812 -0.2684787986680010 1.4165621885646034 120 126 142
0.6419697593796544 -0.2535043523046374 1.4144058789192560 193 195 220
0.4741580888521855 0.3847921802327902 1.3874484691604387 52 58 92
0.4931131406641113 -0.4092503312425341 1.4998489474672949 84 82 93
0.4897779358368523 -0.4022068722786498 1.4978894001990033 18 18 28
0.6864440935166038 -0.2605781506130491 1.4153471900040429 101 102 120
1.3325984090785150 2.2007770416265164 2.5842028052846509 116 78 41
1.2665122404637879 2.2765642030921942 2.5927659379573944 110 74 40
1.3428300434664786 2.0775536214966435 2.3981169852930218 202 166 116
1.2201847493090874 2.9269130651951176 2.9309263554165175 159 124 96
1.3251331599861045 2.1864319715597391 2.4783948766771262 121 83 44
-0.4945448472521060 0.0727814020268715 1.2433382349509079 91 76 55
0.6982545071266157 0.2740186535787130 1.3761354849873093 59 72 124
-0.4779642759775796 0.0428942043790995 1.2188197744692446 41 33 31
0.3456222722482097 0.4464336065002096 1.4308429131924294 67 74 118
0.5302797250509723 -0.2760476963451006 1.4304810584877050 129 132 163
0.3592265806360911 0.4716346691645323 1.4422516792332056 34 37 68
1.2856468414700115 2.2673576755922413 2.7153000151505626 197 159 112
0.5674823360171064 -0.3146920671601185 1.4484059839471994 73 76 93
0.5482620858657112 -0.3005981858089721 1.4466859044113189 138 142 177
0.5536242629857998 -0.2974373276248247 1.4318685337330959 91 97 123
1.0324044148207403 3.4115824616331274 3.5817302835785312 124 111 94
0.5861211575685089 -0.4140734027693266 1.5199944535766987 32 23 26
-0.3246071364264305 -0.0840944403920716 1.2709701181209965 95 68 39
0.5163758887429147 -0.3529034294178255 1.4587662465565299 78 75 96
1.1194970939251263 2.5392528335571640 2.8423067026271447 184 140 91
0.0159611521253456 0.1278059954044741 1.2949998894073025 167 114 72
1.8592602870291395 1.8387844128132007 2.1442208530430551 211 201 192
-0.2225404969532932 -0.1445558694442270 1.4124282413468849 46 33 27
-0.2031452821244555 -0.1483672440615088 1.3799182148917855 144 100 71
-0.2613325959164858 0.1768313962568901 1.1883535319428096 76 74 77
-0.4565736631145111 0.1892255293397558 1.2200990956137441 236 222 196
-0.0909196970927738 0.1114218058975011 1.2284718673786106 219 215 229
0.2257548130611835 0.0916781418012653 1.5125639574719818 202 200 205
0.7493999176788489 0.3971311807733706 1.3920224704286153 18 22 33
-0.1469117355750838 0.0622841294225205 1.1886096404492461 47 47 59
-0.5846882277773695 0.0626955806705609 1.4657310345971823 234 217 191
0.7402749652758822 -0.2398903608678540 1.4023851702233088 72 53 55
0.6537370566891806 -0.2916886335065373 1.4232064271574874 160 167 193
0.6989398108701710 -0.2242910976398464 1.4020571875681354 207 227 255
0.6923931183488975 -0.2232867047070654 1.3979888289767672 23 39 73
0.5072946456834065 -0.2110633450635402 1.4399853968347152 7 7 33
0.6070289444074919 -0.4105243998477986 1.5260777639183880 41 16 12
0.6491467305170581 -0.2860428576978045 1.4195027337326438 165 174 205
0.6257325976677137 -0.4076256972565889 1.5110087578408367 54 31 25
0.2794717664594616 0.1470193139530940 1.4915414278957631 29 28 59
0.6872406431225895 -0.2854707861507009 1.4277768456980553 59 48 64
0.2427308047407032 0.1994953193251900 1.5263602299465868 21 18 39
0.5627484654949964 -0.4062099967713292 1.5113115188294830 32 31 27
0.6010717331221900 -0.4082183082632325 1.5171738958539882 62 34 33
0.7383379338577354 -0.2344117967081397 1.4048502161813645 89 69 68
-0.1388345226215011 0.0824328184979125 1.1949377118647795 92 115 157
0.5594809572218572 -0.4022051183689622 1.5046618927406477 36 30 32
0.5583152310900972 -0.3994118300920677 1.5048166779202103 126 122 119
0.6864900091650480 -0.2804469703299398 1.4236690055454346 132 136 161
0.2652987981964247 0.1663952310790266 1.5019451287086425 34 37 68
0.5923884774995115 -0.3860972158774690 1.4925457459055869 90 70 63
0.6116133660734989 -0.3359359736651946 1.4472944514277994 106 99 117
1.3214161429330469 2.2112408265878329 2.5863339041926410 179 141 105
-0.1207958096517217 0.1271982860558524 1.1463529885955148 74 57 73
0.6427747027709517 -0.3055986433796525 1.4273130006102757 97 100 119
-0.1246118050072194 0.1381433780697676 1.1328440662757422 237 255 252
0.5241549507895923 -0.2152561511612703 1.4263435372641582 170 193 237
0.5951640086334185 -0.2375553200306956 1.4118770856044733 175 179 206
0.5443286479176973 -0.4228815120199261 1.5195423396799683 112 112 114
0.5664260365717573 -0.2634145203416138 1.4238815014673283 100 102 115
0.6087301487949738 -0.3178875634214812 1.4413656558295342 108 105 136
0.5471147835373517 -0.2997013531562673 1.4352122374228566 163 172 201
1.3415938129636134 2.1777768036793987 2.5962249294867377 166 128 89
0.7006893165371824 -0.2399816522465410 1.3952369866933578 102 116 161
1.2919640079680774 2.2586610301057228 2.6128378572689259 112 73 40
0.5506502736144278 -0.2674760376486857 1.4332600098146673 149 153 180
0.4432402151820222 0.3899064769777712 1.3894196591628813 59 60 106
0.6043235600448353 0.4085672166256344 1.3881184328236793 58 65 93
0.5878298785656042 3.0748188455291245 3.4460999391279215 208 156 117
0.5986433065850983 3.1532256105305527 3.4683861962137654 143 98 67
1.1616305481389975 3.6412641601536264 3.7471819931183039 162 137 106
0.9263879427065037 2.4363709913432374 3.6684935436091708 208 173 153
1.3451415765796635 2.1994584642515549 2.6216924097240208 111 72 39
0.5323691098350360 -0.2381839830390859 1.4222882935245662 204 213 244
1.5585521185532973 1.9107412041851113 2.3455624626098475 185 148 106
-0.2689865723821606 -0.1379041399219552 1.4344045693703156 65 56 49
0.6826760368630225 -0.2715588412734458 1.4183469968410720 114 115 136
0.1301585734473058 0.4184878551317278 4.2247999770079998 229 167 120
0.3892054130685344 0.4144319168167839 1.4069452379466820 55 63 102
-0.5356051896837106 -0.0004052305792222 1.5067189039297897 185 162 131
0.4504473684431117 0.3908915196221653 1.3903384550658480 60 68 105
0.5445637766010801 -0.2207772600012765 1.4191119163261949 107 119 159
-0.2328819109364574 -0.1717853142053269 1.3120419445275087 49 39 30
0.3005751808403067 0.0957236435796532 1.4631780071594289 65 73 119
-0.1293459672911026 -0.0075022639100840 1.1914812892189273 144 143 159
0.5593969763753728 -0.2144625301309731 1.4149804465401645 115 114 146
1.3428650192309959 2.2083400158260322 2.5642047463163560 181 137 100
-0.1247151149046250 0.0828629744025667 1.1951025128170205 146 143 152
-0.1259578810644455 0.0911253527748469 1.1948725094523605 112 84 83
0.0890535215385046 -0.1569453046395460 1.2045034311273564 191 185 187
-0.1923406570518377 -0.1973802830910423 1.2187227541530627 28 23 29
-0.0104457948883105 -0.0507510939811884 1.2207903218042058 168 148 149
-0.1473579699959579 0.0936451324752895 1.1874503170048798 158 156 178
-0.0577079443523771 0.1739694110445235 1.2481602928013826 218 188 154
-0.0692223817847687 0.1609303660344867 1.2171316856081502 197 168 138
0.5789402773725604 -0.2457832794806345 1.4173938815085090 94 105 123
-0.1639404566973330 0.1175489944555572 1.1737331335491041 170 172 184
-0.1351750347767687 0.1558494931268047 1.1699948004958969 91 79 79
0.3789311211501303 0.4267753184779809 1.4175533328431305 73 87 132
0.6114555828501187 -0.3751207620130677 1.4775213799303233 160 138 127
0.1095207815834000 -0.1308929733669908 1.6494252101091631 146 90 53
0.6156413845678632 -0.3136986191444462 1.4342381226564525 112 114 137
-0.0676331220545401 0.0039662352623492 1.2002960872899058 140 98 100
-0.0716061126127626 0.0184679065270124 1.1953824991868265 176 174 196
0.5489119690827020 -0.3003163822642894 1.4481147830779348 155 159 186
-0.1539876510331766 0.1372743960902489 1.1872650072919624 51 46 43
0.6559092614377471 2.4068092089252793 3.7295752547039251 158 109 66
-0.2689674066358788 0.1022869032758475 1.1192735416428961 114 112 115
0.4038777534049081 0.3448608761240485 3.8396813517727506 211 154 111
-0.2280380860722161 -0.1657035309319984 1.3262374892797328 148 125 91
-0.5696347931109259 0.0449758027540142 1.4101661402333345 114 93 66
0.6719693170273746 0.3622212423033770 1.4162471720991374 17 18 36
-0.4700368832028159 -0.0482732341365779 1.2943884897780145 93 74 57
0.6893749904413408 0.3978563163642647 1.4290671431567061 55 59 96
-0.1759735129463459 -0.2043113971022570 1.2091412808989221 115 74 52
0.1939796956143613 0.8937729039387660 4.0497414054808534 240 178 127
-0.1201000740871463 0.0668285018356854 1.0948656017528597 208 194 168
1.2672679469078896 2.3135869328358676 2.8377960402560642 156 119 77
-0.1939675461692401 -0.1315328359816049 1.5579399003019148 137 87 60
1.3321402414843522 2.2207476933415076 2.6806972979602182 124 87 58
0.6554300240558064 0.3116053523658885 1.3823125613383092 60 76 135
0.5874506153335730 0.5863689285095977 1.4259831506796949 75 87 139
-0.2109731523715242 -0.1274794149822183 1.4874734277454102 153 102 75
1.0839134471381091 2.8616535033909249 2.9518222306282671 238 208 174
0.5685328395745162 -0.2127734599647824 1.4184575606602252 147 139 178
0.6707423489036233 -0.2264800704019466 1.4045492950189291 206 222 255
-0.2509469030420940 -0.1532838954655117 1.3855345486777204 64 59 53
1.8719434015919092 1.6832300904487731 2.1372566334800918 89 61 40
-0.2572709179035377 -0.1340418991487996 1.3950015521226409 17 16 12
0.5653634292665380 -0.3859548558749160 1.4889465643232134 90 89 103
-0.0232704067322756 -0.0245812938764285 1.2185523490506338 165 144 151
-0.2803363429697610 -0.1207743444328994 1.5665733187521973 141 65 39
-0.1536689090678820 0.0444510348679091 1.2330890310304790 135 117 117
0.1209369488939364 0.7606337235546677 4.1884782869819004 166 104 57
-0.1974782530933684 -0.1310917624934485 1.5314132468500101 168 114 88
0.1872646714302159 0.6852258760695265 4.0140339105441356 233 167 117
-0.1781690525156040 -0.1308247194049428 1.4852382031751510 145 93 69
-0.1309296376853231 0.1002281418335703 1.1925690244124514 69 54 49
-0.2660461319934364 -0.1231775277556456 1.5497282118193669 173 112 81
1.8376353638170542 1.7264668867060093 2.1141942059104393 208 197 191
0.4971307532117109 -0.2620861407850067 1.4428258975740569 18 20 43
0.0316946696072434 -0.0128569907798185 1.2438308207858997 204 197 230
0.0206749336349011 -0.0125848001518522 1.2326152622278992 114 69 74
-0.0069426571683517 -0.0101609337083359 1.2204256276160144 136 103 96
-0.1009430276433424 0.0182853074665508 1.1998827836750885 196 195 213
0.0181287886136757 -0.0282362955412484 1.2671540640898780 107 59 57
-0.0725643706579589 0.1468841399985175 1.2424565944310793 188 132 85
-0.1514103643630241 0.1254942516212746 1.1963775642214960 178 170 181
0.3081032308680777 0.5682388361452418 4.0625467056827285 208 147 100
-0.1670428483103258 -0.0991908245748705 1.5801441161901937 118 68 41
-0.3073062365363093 0.1526458333314393 1.1284118428223913 244 242 227
-0.2251775603203019 -0.1230903926119997 1.2475677776960532 65 43 32
1.6200373413464377 1.9480028602531654 2.2105161700671281 128 97 68
1.7852692627130766 1.8886208658295132 2.2101335598615499 183 153 117
0.5577174061355206 0.3900111495801148 1.3815278450231749 10 9 14
-0.5544624131790730 0.0923586626708430 1.2807306222951560 245 231 205
0.1268445930504284 -0.1574967002134794 1.7282586708222714 33 26 33
-0.1136279638714638 -0.0704573718638320 1.2490249450368653 133 90 73
-0.3232023454050622 -0.0784925421986727 1.5869153163985137 29 24 20
0.0663300414304551 -0.0768121729916214 1.2706327506685446 181 138 129
-0.2072610815173633 -0.1558746214251190 1.3283558949826444 115 79 55
0.0960029840279564 0.0045342464765414 1.2927021152795903 215 204 212
0.0251215886101434 0.0383961979206434 1.2718034881555471 151 120 115
-0.5688417025336845 0.0038653765562230 1.4707926765755672 232 215 185
-0.0642358049777892 -0.0458363228380467 1.1271268220142465 198 168 178
0.9861751585861910 0.2380824624720851 1.3888694606942296 62 75 130
-0.4240188912253690 0.0354848324471414 1.1666705557256605 61 45 32
0.2999260381843514 0.1061644140031699 1.4771289232442573 28 29 57
-0.4501836028714657 0.0793472985699922 1.1948377642979604 85 69 56
0.5153421033463672 0.4448721780438898 1.3809524474613182 78 86 133
-0.5182260695438923 0.1427081654053953 1.2523310960498626 239 222 196
0.5557851387479100 -0.2453052494527554 1.4195032569055090 84 86 111
0.5844710804878106 -0.3927601372661247 1.4907671676407395 43 22 17
0.5579186479377484 -0.2393553056005750 1.4039726261913583 195 206 236
0.5659835382956057 -0.3911828671237789 1.4862315586540764 19 19 21
-0.4410438582371562 -0.2854479882058382 0.9526457969379486 181 160 133
0.5178701874326540 -0.3784924474403674 1.4789791851321739 148 144 145
0.5895862346948003 -0.3879595720456380 1.4883876868542181 88 68 59
-0.3544543692615436 0.0752318781603728 1.1148012955304636 113 109 110
-0.3561013995203737 0.1188160232429032 1.1535946131519343 72 69 78
0.4314200143004942 -0.3851633718292753 1.3580161998352900 12 12 22
0.5050719472225488 -0.3477822780176862 1.4511684221802257 90 92 117
-0.3467703770315782 0.0810597523126289 1.1140046680817597 66 62 63
-0.2403397773990352 0.0719170321787028 1.1250214405428625 66 65 81
-0.1270951015697689 0.0987584243323253 1.1840800343978961 144 121 103
-0.1368756958720750 0.1626429599772383 1.1706129424267222 96 76 67
-0.1201143489687838 0.1247491003343141 1.1398958774021615 133 123 113
-0.2464478788686764 0.0769748899015181 1.1233951997608218 75 75 85
-0.1402609452273569 0.1535808061277870 1.2238407858780207 198 164 126
-0.5711382121582883 0.0645505051574771 1.4626483831507384 168 151 125
-0.5114393432347231 0.0668691630824851 1.2647777099689446 124 99 79
-0.0987110328427234 0.1701816560435897 1.1923844976976117 72 57 60
-0.1968556871994822 -0.1597438458716155 1.2698866613903024 255 245 212
0.4667859655976446 2.9333359142951561 3.6393057042789687 185 116 61
0.5647668848970552 -0.4235853023746814 1.5208816683253799 76 69 76
