ply
format ascii 1.0
element vertex 422
property double x
property double y
property double z
property uchar red
property uchar green
property uchar blue
end_header
-0.7295070114205384 -1.0605987394476457 2.5469009048530662 189 146 101
-1.8003740248904336 -0.3425194181475835 4.2849955275942904 167 144 110
-1.8003740248904336 -0.3425194181475835 4.2849955275942904 167 144 110
0.1556852012493116 -0.7686338373948357 1.8124905808457625 120 82 59
-2.0676652848087813 -0.6754570723968789 3.6704255750549737 135 136 128
-0.8443786896950701 -1.0819813796868885 2.6247244322880099 200 157 104
-0.7668375972792144 -1.0821218782907591 2.5689437765492529 220 173 131
-0.6869324160619943 -1.0563149720220457 2.5089874192825725 166 126 90
-1.7052712153528942 -0.3304921999801914 4.2931094184650611 89 67 53
-0.7136268686945491 -1.0618828342919042 2.5247643916347666 184 142 102
-0.7794937609164735 -1.0669833726455062 2.6012186148564296 186 143 98
-1.7526873440822339 -0.3234760633938626 4.3098419452114145 209 190 160
-0.6706427810338905 -1.0327264284360169 2.5419190116009398 175 133 85
-2.0138310537988757 -0.6676158349700591 3.7057768554995119 136 140 139
-2.1485449128383758 -0.5926961470182118 3.8288529063779539 120 142 140
-1.5114711842870772 -0.2973023263285017 4.0845569833025239 232 227 231
-0.6852251275262173 -1.0474659573136917 2.5383096940881802 184 144 95
-1.5114711842870772 -0.2973023263285017 4.0845569833025239 232 227 231
-0.7211195836812349 -1.0524927006562990 2.5535911210415381 186 140 91
-0.1300339584466375 -0.0912424057351861 1.2946006757795929 191 193 188
-0.6554515725337241 -1.0339773234004483 2.5242273300760951 191 147 102
-2.1354143348081696 -0.6574069030819861 3.6793575126630138 167 171 144
-0.6768061081733555 -1.0339362681002469 2.5465084536735398 240 198 150
-0.7702040421507562 -1.0389786772121616 2.6292002283092071 180 134 85
-2.0847964794664553 -0.6586163285509609 3.6935810833466967 82 95 88
-0.7546679402579602 -1.0359509495282055 2.6213957928365916 247 203 154
-1.6826009514794278 -0.2782784661498128 4.3327845667056071 67 55 59
-0.6372389616695999 -1.0213951516906952 2.5168041666196701 246 204 154
-0.8747612421801506 -1.0571963086156728 2.6854862545629867 255 215 163
-0.6597938428304071 -1.0280220341933304 2.5428231139468949 255 212 165
-1.6225027233511489 -0.2770951615574446 4.3370935192800397 88 85 76
-0.7595165117649026 -1.0346749499373740 2.6249046719880860 182 138 91
-0.8582220511405482 -1.0677412855259976 2.6471078041818368 216 176 124
-2.1355857433035768 -0.6525929740880748 3.6838513793961423 74 86 66
-1.7231592159999902 -0.2731769875601878 4.3177604090373549 58 45 37
-0.8533355730848747 -1.0646301714999200 2.6450547050663826 255 207 151
-0.8949654434765971 -1.0491287942029950 2.7049738327466364 255 223 170
-0.6411765669716911 -1.0189447398276448 2.5295691583498474 204 160 111
-0.7963434031331166 -1.0287317384902559 2.6489733516570579 210 166 119
-1.7524692469660821 -0.2647328534980907 4.3131097916290866 107 87 63
-1.6960966381505336 -0.2668963558514436 4.3405784588162648 34 27 21
-1.6960966381505336 -0.2668963558514436 4.3405784588162648 34 27 21
0.0661821294744032 -0.7266712744705949 1.8229724643151637 133 102 81
-2.0704710574050487 -0.6507771751256540 3.7097674896751989 96 101 104
-0.7317515691069293 -1.0367698119366362 2.6118777472656798 159 113 64
-0.8924614881548867 -1.0382247852696433 2.7072846876729502 152 95 40
-0.8728894215406064 -1.0603900982409298 2.6776468693684885 212 165 113
-0.7879905499159691 -1.0423177016213863 2.6309350289967162 170 125 84
-0.6813677772431180 -1.0199443114581270 2.5910129735538776 232 186 137
0.1981344946297834 -0.7323902572508543 1.9150430137099823 122 86 62
-0.7031678183683032 -1.0229097929604076 2.6055764155070662 248 204 157
-2.1476797364549389 -0.5536300399771698 3.9062779567568717 174 173 152
-0.8313566975431881 -1.0355225570852469 2.6518672951184761 239 193 141
-2.1911808778485811 -0.5431844233465699 3.9150842613286465 63 102 117
0.0638320230132989 -0.7067549879886396 1.8645089157774000 126 93 62
-2.0949683897299543 -0.6425454292427710 3.7373099442535151 180 159 154
0.0217382174589105 -0.7014397574451341 1.8567675176305443 143 108 78
0.0217382174589105 -0.7014397574451341 1.8567675176305443 143 108 78
-0.6773589140024847 -1.0126563905680876 2.5945022146984433 177 133 84
-0.8271880412903163 -1.0326428445778331 2.6635577197909526 254 210 161
-0.6792319598068952 -1.0094612012153068 2.6080885450552098 255 213 166
0.0147762469140162 -0.6986796039049982 1.8590048506299259 140 106 78
0.0118153227131131 -0.7062461032893582 1.8435928859195936 136 102 75
0.1410711854974459 -0.1702391969402344 1.3740344411858358 67 68 62
0.0050056835340669 -0.6967532529455371 1.8609241847750164 123 84 53
0.1747295986054389 -0.7304209604592395 1.9089986567655866 128 93 71
-0.0636365930224056 -0.6900191789456320 1.8472772803348516 132 98 71
-0.0298142574618146 -0.7009880517699156 1.8414570302149285 132 102 78
-0.7549881005698328 -1.0039397141007675 2.6624600457735048 202 160 112
-0.8200732911739311 -0.9819508118113132 2.6864399153497267 160 117 66
-2.0987950949461252 -0.6191142359741018 3.7845779211393817 146 149 142
-2.0987950949461252 -0.6191142359741018 3.7845779211393817 146 149 142
0.0329033051599495 -0.6870565541577054 1.8929332405380193 136 102 77
-0.8499045844006053 -1.0015714844737253 2.6860906187851676 180 129 76
-0.7659025771011616 -0.9610203348455060 2.6964160275216211 170 127 82
-0.7659025771011616 -0.9610203348455060 2.6964160275216211 170 127 82
-1.6685919927543389 -0.0168004127169337 4.5678144870989446 185 174 156
-0.0438150161747285 -0.6791711374193978 1.8765293869738882 133 96 69
-0.7685262512831352 -0.9558349855938018 2.7024475348506165 177 134 89
0.4060690829979084 0.1932998384070028 1.2919782767905592 22 20 21
-0.0350965278142322 0.1807052748156686 1.1827777594167947 73 74 76
0.1036035952046474 -0.6989083017362612 1.9466267493648703 115 81 56
-0.8785851095535998 -0.9667893726877411 2.7138607416725509 190 143 91
-0.8748537898136579 -0.9502466350329527 2.7217970574856869 216 166 117
-1.7480354228949444 -0.3121518017352493 4.2986852672852720 108 95 79
-1.7004179389428336 -0.3035758499555818 4.2957882594503669 67 49 47
-0.8975206663812031 -0.9411326358301497 2.7376534109343638 231 181 128
-2.1172337171532498 -0.6032012303813308 3.8126036676219290 199 199 187
-0.7427197598419291 -0.9313155588452290 2.7154574410459502 184 140 91
-0.0427876984287798 0.1885541704089349 1.1847102693022364 168 169 164
-1.7303952611295912 -0.2886950928833577 4.3082306128446985 81 67 66
0.1245950491200276 -0.6829257189570450 1.9907523830555147 125 89 67
-1.7106982545998419 -0.2800174700239703 4.3129095376191859 72 60 60
-0.1839557005058941 0.1857275641953820 1.1299711540661688 73 73 75
-2.0989760498200516 -0.5973615748902550 3.8254103784360507 194 185 178
-0.9022615312678461 -0.9166435969988616 2.7475184062207121 226 176 127
-2.1367094522356256 -0.5937249394196056 3.8231850180664333 74 95 88
0.0190277059434637 -0.6570821432031029 1.9540928571422425 132 101 83
0.2260561882699371 0.2086076245749200 1.2694888636737915 83 83 83
-0.0259574948362768 -0.6524048667342606 1.9443400323954110 109 75 47
-0.0409570082539177 0.1979645296561747 1.1765083203254625 176 174 159
-0.9122430754443006 -0.9119192689933823 2.7590832013695277 161 113 65
-1.6925052517009633 -0.2699342020788723 4.3544489695464534 199 183 157
-0.9122430754443006 -0.9119192689933823 2.7590832013695277 161 113 65
0.1592773280294559 -0.6717063981465042 2.0327382824033338 123 87 61
0.1581756306522578 -0.6683035323495999 2.0372964714311474 176 142 117
0.1623988574343577 -0.6666710781824003 2.0447271642636649 129 95 68
-2.1157001530468791 -0.5851011089843691 3.8529931257663295 131 125 113
0.1940948327198495 -0.0617887551690898 1.3794641695476146 17 8 13
0.1371936651696502 0.2328176968025445 1.2415619788841252 131 127 118
-2.1298286703575986 -0.5647991669620336 3.8871830077692922 80 84 67
-2.1704524547515338 -0.5429738464562909 3.9310440559577655 85 100 79
-0.0347086836385418 0.2245714677456315 1.1633585931777786 81 83 82
-0.0306538357308844 -0.1581727943401428 1.3127200643271417 23 5 5
0.0486666462212609 0.0833793149499130 1.2150875440285827 195 83 79
-1.7161329711529978 -0.3336428504449313 4.2952554898485467 208 188 151
-1.6949051151710954 -0.3302026975316540 4.2970238995959482 72 54 32
-1.7656223517332585 -0.3210559623806970 4.2856408837842137 156 135 106
-1.6940070742795819 -0.3138242170091251 4.2892839603865456 72 57 54
-1.7014815805829822 -0.3124310032690680 4.2863103422620004 246 232 223
-1.6769177290866004 -0.3141908462015713 4.3192836005779043 115 105 104
-1.7650696588641670 -0.3102314444696610 4.2826416022145173 232 211 182
-1.7614253008841969 -0.3110872660697075 4.2888694385589528 111 92 59
-0.1354277751274395 -0.0894210239062830 1.3015922906733117 185 187 182
-1.7270041262697398 -0.2603967415699068 4.3262017399495356 255 254 220
0.1912084401442085 0.0820594156562462 1.2647202912990780 69 68 64
-1.7295938007074374 -0.2571927005022762 4.3146131400715992 67 49 35
0.1935417066994101 0.0842313035229981 1.2641411178297237 12 12 10
-1.9196257145786864 -0.7660693883482237 3.5192251711782410 105 104 99
-0.7903189969570790 -1.0789048418804719 2.5928349256396688 237 195 147
0.4885337038733550 -0.3435517598717539 1.5800413534721789 178 131 75
-1.6976009788334536 -0.2556525407962130 4.3472922015355584 51 35 19
-1.6976009788334536 -0.2556525407962130 4.3472922015355584 51 35 19
0.2049650915421581 0.2152224864090742 1.2723252643162368 108 100 87
-0.1924838458014737 0.1935811480389982 1.1308700470426196 119 120 122
-0.1924838458014737 0.1935811480389982 1.1308700470426196 119 120 122
0.5106583689380061 -0.3174238017317834 1.5257654227783788 199 144 77
-0.8250953001879334 -1.1287280201361261 2.5847484361890403 218 179 124
0.1946664791131367 0.0998278906291950 1.2574590381387456 69 70 65
0.1918750281000094 0.1011253029224773 1.2573614305525558 24 25 20
-0.1898632773303350 0.2058623167398614 1.1228632381790644 173 176 169
-0.3235626938672508 -1.0208743842657781 2.3458067188592122 162 119 66
-0.1898632773303350 0.2058623167398614 1.1228632381790644 173 176 169
-0.1648957575580518 0.3927109105148946 1.4803918250388002 133 169 219
-0.7709123192145921 -1.0595578326232904 2.6093207920327330 148 106 68
-2.0801420653266485 -0.6856915144757667 3.6315020872295101 153 178 159
0.1700285761273825 -0.7781086571148176 1.7929689096067480 126 86 60
-0.7709123192145921 -1.0595578326232904 2.6093207920327330 148 106 68
-0.7621619405677029 -1.0578454959485315 2.6045507168723541 234 191 140
-0.7513538753403144 -1.0549954027715784 2.5978824461539918 179 135 88
-0.7512441602582638 -1.0548168504943858 2.5975294488777885 179 135 88
-2.0654009797601507 -0.6797375730452191 3.6596680689566847 193 205 195
0.2879250681038774 -0.2835799788728969 1.5166474321295580 58 42 17
-0.6294624677245279 -1.0185652911027909 2.5131731762380132 187 143 96
-0.3089818082555967 0.3896472385353684 1.4198043320060252 25 31 45
-0.8469696881521925 -1.0638667199235403 2.6433831787661806 199 150 94
-0.7612730668240139 -1.0835627301145765 2.5627814310417567 145 102 57
-2.0831712660048334 -0.6904636844360633 3.6286638854608024 81 102 87
-0.6478828088937264 -1.0186058470338213 2.5385757106403446 255 219 171
-0.6992745654207139 -1.0318872850079133 2.5748451952287565 203 161 113
-2.0920604616708713 -0.6492088520405771 3.7102112621959420 165 129 115
0.4531959885726148 0.2351466789005026 1.3876655864719751 147 140 130
-2.0716890595455482 -0.6495435653375776 3.7224752297807271 208 192 193
-2.0716890595455482 -0.6495435653375776 3.7224752297807271 208 192 193
-0.8870402781125003 -1.0544993669158973 2.6926434441457952 255 228 176
-2.0714476623243221 -0.6443022914268880 3.7301353317260260 134 113 112
-0.9012929106998218 -1.0385583255437665 2.7113683094974137 255 233 184
-2.1210875411472290 -0.6374822486013858 3.7115099250220718 196 203 195
-0.7685205313592246 -1.0121814300213463 2.6531751579070075 180 132 83
-2.1013209127443560 -0.6357970626099912 3.7378353304885006 163 118 115
-0.8531437871993074 -1.0143047015162807 2.6830058200200004 213 162 105
-2.0960418487173267 -0.6343094450804899 3.7456690980904095 122 105 97
-2.1175374142934786 -0.6324177117205766 3.7459779937886353 214 181 172
-0.7424139789793612 -1.0008203538607352 2.6552937324025834 224 178 128
-2.1624299188652953 -0.6279267231354801 3.7282953038662687 141 147 143
-0.8622132969609828 -0.9998566303735988 2.6921991377266363 175 124 67
-0.8622132969609828 -0.9998566303735988 2.6921991377266363 175 124 67
-0.8499922954107888 -0.9961824926926042 2.6896958741784189 231 180 127
-2.1232950083976321 -0.6127936730677532 3.7801687436797429 73 95 83
-2.0872425268747707 -0.5966709126445894 3.8287856372882927 190 183 173
-2.0872425268747707 -0.5966709126445894 3.8287856372882927 190 183 173
0.0229170561740278 0.3999298405255415 1.5578502840363206 110 115 134
0.1368399169693700 -0.6924393696262365 1.9751706974494068 138 101 82
-0.8878671666607013 -0.9347249610718028 2.7370409806178859 248 201 149
0.0839212966163506 -0.6755404159239110 1.9863686240914222 150 118 95
-2.2092802699796255 -0.5698903028725363 3.8402108871484062 112 122 124
-0.7506623907859772 -0.9075812914888465 2.7346032048568998 183 139 90
-2.1899799274591549 -0.5551243964505298 3.8892374956667144 140 142 139
0.1379690926398389 -0.1915540635704168 1.3824243992622247 8 9 4
-1.1276040894527326 -0.8425360588592552 3.4722137941756079 31 27 24
-1.9825356542887793 -0.7661184673878554 3.4948967146212233 161 162 166
-2.0501503009545683 -0.7140992966810923 3.5878769285774013 192 193 185
-2.0685247609560795 -0.6616745365113361 3.6924937619235547 102 117 114
-2.1023221202238176 -0.6579739545904338 3.6891017475946004 96 112 109
-2.1194868006966021 -0.6452980648978330 3.7104823856844007 110 120 111
-1.7409332476593209 -0.2770982577492986 4.3148589307775129 213 194 164
-1.6913547273754836 -0.3237272508066706 4.3031199806655573 87 73 64
-0.6733146510403921 -1.0439225244330022 2.5305150365019689 234 191 146
-1.7409332476593209 -0.2770982577492986 4.3148589307775129 213 194 164
-1.6870735903787517 -0.2695660614572629 4.3508920930490556 210 189 158
-0.7876272404052660 -1.0717396076500652 2.6022738984611418 182 139 94
0.1593741478268290 -0.7534056983172188 1.8456558670710115 129 93 69
-0.0097449797495562 -0.0670593189471324 1.2718053461305212 214 84 71
0.1388688557119822 -0.7460893326924576 1.8475790532814762 151 115 93
-1.9712070269821464 -0.7823317344179640 3.4668853339734804 182 158 120
-0.7790167818444764 -1.0494573149594095 2.6183515159160784 148 104 67
-0.7926810868187623 -1.0994218614905542 2.5695939825142609 138 87 42
-0.7786203632520166 -1.0491388836884934 2.6178076673473583 148 104 67
-1.7377629177982739 -0.2633624115440333 4.3218259202655407 93 77 64
-0.7635807356956134 -1.0416685019448113 2.6184581474806761 234 190 141
-0.7635807356956134 -1.0416685019448113 2.6184581474806761 234 190 141
-1.9557698269008807 -0.7231080431035365 3.5963459498743648 155 150 144
-1.1780240826307724 -0.1740771589248550 3.8428025630675227 77 72 76
-0.7180272030982976 -1.0257840181019970 2.6097915699300138 149 105 56
0.5425946285011051 -0.2950499951364450 1.4501069656675718 196 145 80
-0.6712385235819014 -1.0119429652297192 2.5772431891754692 193 147 98
0.1919475633992160 -0.0589783255652836 1.3795907384254236 250 255 251
0.0017764557392939 -0.0076809404693061 1.2473108127515871 216 89 80
0.1919475633992160 -0.0589783255652836 1.3795907384254236 250 255 251
-0.7726654573822181 -1.0679386607165977 2.5969392978339956 242 199 156
-2.0535720680863654 -0.6933564713325614 3.6270441338789148 173 200 183
0.2315299458041814 -0.0527663539475589 1.3728192141482900 25 21 18
-0.7363998532078282 -1.0490833606366534 2.5798303567984440 232 188 139
-0.7813452078229348 -1.0597209842363897 2.6098401386743149 229 186 143
0.1477457056760117 -0.7464454518362674 1.8576479949343239 126 90 64
0.1120532407234659 -0.7099531379020163 1.9159750810986860 147 113 88
-0.6684944980588691 -1.0187506731827300 2.5655694513454841 233 191 141
-0.6684944980588691 -1.0187506731827300 2.5655694513454841 233 191 141
-2.0534565277194625 -0.6731808669908179 3.6769773000840367 117 122 118
-1.9983883148263475 -0.6749183976773571 3.6901112989502369 92 102 104
-0.0427483044955765 -0.6800395074403713 1.8720219963634384 140 103 76
-0.8788790127290589 -1.0535041329923702 2.6903543783513113 155 104 49
0.1287330945833849 -0.7382097503579312 1.8754954172346825 140 103 77
0.1070819939804135 -0.7020601089242648 1.9368140033108490 175 140 120
0.5914709477929997 -0.0152460796718989 1.3420898038650877 182 125 46
-0.0530762659470358 -0.7059360612747823 1.8160640321646966 123 93 65
-0.8666328145545287 -1.0368651643768161 2.6891421892641594 122 74 28
-2.0993195729615346 -0.6530570072048187 3.6995326223217528 206 193 176
-0.7926208414611773 -1.0224745783940172 2.6535907604628868 166 120 68
-0.8686050358615326 -1.0285658862362566 2.6909220322602994 218 165 111
-0.8484928016067000 -1.0236147370745228 2.6848923025021434 139 89 36
-0.8749963629049314 -1.0225168483468166 2.6916497297584980 182 130 73
-0.8749963629049314 -1.0225168483468166 2.6916497297584980 182 130 73
-0.7830436574754635 -1.0100769011558548 2.6643125275545412 214 167 121
-0.7675322230275471 -1.0064095074265194 2.6596403081635498 224 177 131
0.2029979032864963 0.1157500267858500 1.2482338454708441 87 81 81
0.1983811966111072 0.1175740963888713 1.2507529156609587 70 69 67
-0.8495120921051819 -0.9740026753342895 2.6977776529862014 173 123 72
-0.9088744655286215 -0.9404709027089344 2.7437548053550764 234 183 130
-0.1319949771657490 -0.1353754325568677 1.3144370289253000 83 79 70
0.2086051449735052 -0.6899378358727097 2.0154428358533338 125 90 70
-0.0326161463736553 0.2333987743690633 1.1666975979468359 68 68 68
-1.9295557434013690 -0.7586270847327750 3.5286961742232830 160 174 175
-1.0935458860521332 -0.6757648268289573 3.2427976286911377 156 148 137
-0.8024223892132378 -1.0866301522969097 2.5952109708290005 228 184 135
-1.7891812550518347 -0.3341557576140392 4.2858392575190738 160 139 108
-1.6608605528935385 -0.3273436164487061 4.3306754648295698 203 183 150
-0.7159283515094239 -1.0331670447401184 2.5947195248397867 245 202 157
-1.7458378350599648 -0.2959124332003165 4.2917404231644731 92 82 73
-1.7115399215975500 -0.2916029438294641 4.3086539528938852 152 139 133
-0.7020352979623378 -1.0163965914793565 2.6131335486883360 197 151 102
-0.8474296187491385 -1.1128076887861662 2.6240233797151955 255 226 175
-2.0057611541394067 -0.6755280097551803 3.6767608454036620 187 196 193
-2.0807500916779511 -0.6622988588755212 3.6869668227785857 89 114 111
-2.0588832986914660 -0.6637584886727121 3.6984524139462458 208 209 213
-0.8323843754287988 -1.0166488296999081 2.6823459346105021 126 86 50
-2.1303092911438779 -0.5967269511415736 3.8228681248700851 81 100 94
-0.8273871033962242 -0.9672837833153108 2.6947647033096178 172 124 76
-0.9117194168891853 -0.9520524719612212 2.7387570372103136 198 142 81
-1.6625921510687245 -0.3402559281368058 4.3041867226422070 94 77 49
-1.6625921510687245 -0.3402559281368058 4.3041867226422070 94 77 49
-1.6625921510687245 -0.3402559281368058 4.3041867226422070 94 77 49
-0.8216926309762606 -1.0239128221791660 2.6611305525553153 228 186 136
0.1296288368970806 -0.7241007063061459 1.8933799485632390 176 140 114
0.1482361574618174 -0.7520260893590613 1.8325857829550825 161 125 103
-0.7231620329384995 -0.9699975258970165 2.6578194016751642 215 178 134
0.0958001507075966 -0.6969830987349438 1.9401922961562634 82 49 34
0.0108693989399741 0.2198356404128290 1.1910159822722199 155 128 101
0.0958001507075966 -0.6969830987349438 1.9401922961562634 82 49 34
-1.0753650820185974 -0.7211427735151096 3.2478835968759934 33 33 33
-0.8127616789108052 -0.9651415142153676 2.7045868808630864 164 122 80
-2.0106792798958284 -0.7655353668903904 3.4981143273367770 187 193 193
-0.0175671255412011 -0.0585528864743075 1.2883535283645489 189 71 67
0.0024775116986624 -0.0519639047823232 1.2767429235143919 35 24 22
0.0080187264824093 -0.0212146486252744 1.2547089024474638 41 23 19
-1.1058179722153321 -0.6400984307191117 3.2795020753027142 153 149 138
-2.0022188130115941 -0.6926971115116030 3.6663998867087528 77 91 100
-0.1119358971109134 0.2240726144652088 1.1478985900975631 163 151 137
-0.1119358971109134 0.2240726144652088 1.1478985900975631 163 151 137
-0.7321197232985400 -1.0169694266899472 2.6308048362052991 248 205 160
-0.7321197232985400 -1.0169694266899472 2.6308048362052991 248 205 160
-2.1015170376021017 -0.6429281573724703 3.7130290038690790 195 171 169
-2.0835021162843925 -0.6377885408493823 3.7406832431796793 143 133 123
-2.1454663568744485 -0.6085198369899022 3.7792272699031804 59 103 132
-0.0032788853818831 -0.1542818448187701 1.3191279083806482 176 50 38
-0.1287296774281121 -0.1017087858438638 1.2948755434878618 179 179 171
0.2188190489041837 -0.0373857627277456 1.3733058158468325 16 18 15
-0.0250508978917860 -0.0269894354479518 1.2850903285559974 15 15 15
-0.0353520986296541 -0.1485631396221568 1.3341206769563738 131 60 56
-0.7368333958079718 -1.1341693127900576 2.3335180512560032 231 190 146
-0.7337802942519135 -1.1314121758283695 2.3453457623681619 223 180 135
-0.5491928390769119 -1.0683813817850281 2.1947607759968673 167 125 75
-1.0606959107432703 -0.7336704958695731 3.2469627088950617 223 219 208
-0.7274783835595492 -1.1108957972128843 2.3616219227482502 244 197 153
-0.7521606845865572 -1.1234625067391004 2.3860527005940320 255 214 167
-0.5799491931302680 -1.0803853005107511 2.3632945458086421 139 99 64
-1.0873106837749036 -0.6766425114907019 3.2650507109233766 107 108 103
0.4824447604027144 -0.5288197285702703 1.5827707843592742 255 199 125
0.3520978089230185 0.2079228273352468 1.3362629329538216 20 20 22
0.3392030963302229 0.2174806182821033 1.3622045434637930 71 73 72
-0.7430108787723055 -1.0760026849473470 2.5276646644555965 199 160 117
-0.7466356733142048 -1.0690835786335535 2.5680246981309356 166 118 70
-0.8415669464331806 -1.1193794553010834 2.6053627305159583 255 236 185
-0.6774958060476363 -1.0437716732636979 2.5339832729765859 255 214 166
-0.8195641021736358 -1.0597146242183819 2.6225370616532575 200 154 104
-0.6706313732829919 -1.0112538249495531 2.5906743113106523 232 186 137
-0.5559379261539523 -1.0718294025129311 2.1985053880652137 247 203 156
-0.4881816099273849 -1.0921398109324063 2.2507434152644459 62 33 19
-0.5645095973366125 -1.0692730528796897 2.2162300688777044 235 194 148
-0.8033104783387556 -1.0240453799415326 2.6580183453695185 232 188 139
-0.6804261001763525 -1.1439983409999386 2.3246875813986927 133 88 47
-0.7184976078915589 -1.0026372685851181 2.6427550979392702 192 152 103
-0.7246327042438887 -1.1380516301594097 2.3246791434556702 211 172 133
-0.7302930479208364 -0.9971551013846546 2.6555749480660680 218 174 125
-0.5054902255847582 -1.0923321358617144 2.2798669956066120 145 101 72
0.4600299850783997 0.3766622559149619 1.6959459047325098 58 25 0
-0.7833479661671987 -0.9845260526873423 2.6737172660541515 181 138 93
0.0993141255137506 -0.7775615329215717 1.7201345023436405 130 94 68
0.3763241259446945 -0.8155034309959704 1.8192641444893629 119 79 43
-0.5898781644443152 -1.1270471743540191 2.2120115939566611 144 91 37
-0.8404531214929868 -0.9600301428002137 2.7078553126696261 173 130 87
0.4576405498852508 0.2349031279692682 1.3876382277837411 105 88 72
-0.1007751295458486 0.3210694388745201 1.3161650036642081 14 15 19
-0.1192045107250444 0.3309314438725764 1.3239210007152504 170 170 172
-0.7295323409456156 -1.0608313856621268 2.5471614357299726 189 146 101
-0.7615955141387778 -1.0762202741804552 2.5828315359491443 139 92 50
-0.7911067530524626 -1.0804326763217069 2.5945857073940379 237 195 147
-0.7579380171565483 -1.0699200217728448 2.5904781799259289 253 209 164
0.0976712996050542 0.3803415122898730 1.5692655983497545 105 112 120
-0.8469393915222434 -1.0640614975061216 2.6436695133849151 199 150 94
0.2757509017281245 0.2882668399442382 1.4288569217041900 30 16 16
0.1884710653496498 0.3385321593549663 1.5047087432307038 149 41 38
-0.7885749541076710 -1.0046223302826354 2.6682660753106489 122 80 42
-0.7214842742482797 -1.0494676846114277 2.5771604853013352 170 123 77
-0.7048278961475803 -1.0439159385632037 2.5672379655488951 237 197 148
-0.8974424961532466 -0.9350738934670962 2.7398989423472675 179 128 73
-0.5630696575927325 -1.0960570643664382 2.1891656928974808 255 216 163
0.1686797935570157 -0.7896250378434587 1.7700700095631392 144 111 94
0.1477906312048453 -0.7734598300832667 1.7733051109788298 154 119 99
0.1636791740246730 -0.7804474206580765 1.7857352650856819 164 129 101
-0.5022872104996512 -1.0917837597571443 2.2592317936022246 202 168 140
-0.5221274564692681 -1.0696881384233601 2.1754755550403315 161 122 93
-0.6757519035578208 -1.1426116512364610 2.3315495795135694 192 149 107
-0.5563674645179081 -1.0661940082750878 2.2056519681243314 244 198 149
-0.7345495103612910 -1.1424566193661736 2.3299036133289230 220 173 127
-0.5004986224844340 -1.0759871855480276 2.1544996566025221 143 102 72
-0.5463045332426019 -1.0846741854198996 2.1764543314409175 195 145 92
-0.5691296353717126 -1.0783451283111136 2.2185174274069914 175 134 90
-0.1242083951247025 0.3216037888057568 1.3149503829607843 86 94 107
-0.1222477327695654 0.3263783089287863 1.3195860440203380 15 16 20
-0.6832561530789432 -1.1157170486266537 2.3457859421616272 124 87 60
-0.6805846460172533 -1.1101211759102068 2.3508583346396428 202 163 132
0.1275437662103728 0.3551946655361055 1.5066449263642365 28 23 27
-0.6814534055695987 -1.0501934676715434 2.5237598310206546 162 120 82
-0.5985537183288565 -1.1264616242155472 2.2196999329232532 185 130 76
-1.1074779467472038 -0.6418882972142714 3.2832061647772384 153 149 138
0.1853755378601554 0.2661469670904401 1.3358400838551576 19 18 16
0.4773876642073107 0.3312545274609736 1.6518940850299602 128 82 32
0.0254130650552262 0.2289397621277468 1.2011823053571584 147 119 95
-0.4497146568151780 -1.3142455024232942 1.8612175279195582 167 119 70
-0.6636997425236484 -1.0138957860526563 2.5773134833525364 198 154 105
-0.6861246877702666 -1.0172442785782596 2.6020970246669783 252 208 159
0.4510551910885199 0.2330212908853883 1.3901480424896333 86 86 84
-0.4455248371209674 -1.3115544931613492 1.8559124524841402 209 159 110
-0.4479303127351505 -1.3005247615285380 1.8672005018544220 213 162 115
0.6115846702547512 -0.3022017752133975 1.2809524604792093 132 76 19
-0.6967012663175695 -0.9746388835326011 2.6501736924629467 223 175 126
-0.5067819404087616 -1.3149982237016840 1.9152441275328269 250 198 140
-0.4062310127390971 -1.2460810013999530 1.8964439225336958 205 155 106
-0.7552926811583188 -1.0767099172299781 2.5661032080013251 170 126 79
-0.7487954392664563 -1.0489207631316737 2.6043249995488047 236 192 145
-0.7253401129755846 -1.0334387978340478 2.6120963706225648 169 123 74
-0.7361955137854445 -1.0239956139628255 2.6231672491904861 198 154 109
-0.8157351533998817 -1.0126847660480049 2.6749226193977722 150 103 57
-0.5012177302614382 -1.3563995155645225 1.8649173967430512 182 129 79
0.4831425473051910 -0.7146149191175510 1.5673530838529812 130 71 13
-0.4456611492475744 -1.3052674255476238 1.8605040179206582 212 162 113
-0.4642520082347011 -1.2590592868652106 1.9179682489581886 215 167 119
-0.4884382246524770 -1.0849631116614342 2.2524325223130846 158 123 95
-0.7180577803992483 -1.1365240230756792 2.3258838697948265 106 67 36
-0.7271019579987621 -1.1359155091381778 2.3395808674762106 185 142 99
-0.7397219039515126 -1.1333847533186603 2.3515203499690318 141 97 52
-0.4967510747377708 -1.1768540184793017 2.0229538451103415 160 110 59
-0.8202186636170211 -1.0853730796327958 2.6050790561918453 201 155 106
-0.4968203857215675 -1.3805768307053004 1.8311815328696335 194 139 82
-0.5005042987768848 -1.3524742945226997 1.8745860760166762 163 116 62
-0.4377499945300194 -1.3012183066087168 1.8505961723673474 149 102 50
-0.4124037988446099 -1.2527941298769019 1.8964930519658441 130 83 37
-0.4807510735761107 -1.3527977877494290 1.8295041767684885 169 117 67
-0.8524511374398968 -1.0928297941789218 2.6258552100077517 255 227 179
-0.3273172910435790 -1.2452326980363817 1.8311111321955027 194 146 106
-0.5130322263907587 -1.1783132266600345 2.0358414915384797 174 127 75
-0.6984939807458000 -1.1753048633338645 2.3104351989368697 176 125 78
-0.4636648990600180 -1.3382619610540787 1.8390071808059485 173 123 74
-0.8635643963972589 -1.0430649976602895 2.6832333951485277 255 210 158
0.2378300796488395 0.2738453386618814 1.3759928465967657 146 38 38
0.2378300796488395 0.2738453386618814 1.3759928465967657 146 38 38
0.2215015886169494 0.2755621823072094 1.3724392680153845 50 48 53
-0.5421151054059191 -1.0883048510525042 2.1675306136555403 255 215 166
0.1134285818983838 0.3210571639244202 1.4844256884967668 54 57 64
-0.5420157480354767 -1.0863897275865273 2.3613024664787465 172 133 102
-0.5111068560682960 -1.3918101888405137 1.8385841315187945 255 234 190
-0.5219697186364605 -1.3380532263539962 1.9123091364337959 255 229 182
0.2393237121540173 0.3316891005968051 1.5126434949998120 23 23 23
-0.5219697186364605 -1.3380532263539962 1.9123091364337959 255 229 182
-0.5511159956496253 -1.1027592360724523 2.3452165279369055 161 122 91
-0.4321902660858042 -1.2778534565604460 1.8725072127518496 152 101 56
0.0024243259918664 0.0047382688416514 0.0019255226259946 0 255 0
0.0144855191850930 0.3197787276184725 0.0892694482551234 0 255 0
-0.0401159797677829 0.5333513165203422 0.2879036449710666 0 255 0
-0.1957248727368932 0.8166748428098366 0.5188863019693268 0 255 0
-0.3306124563318933 0.9660654634471467 0.8028152925679951 0 255 0
